# .PCD v0.7 - Point Cloud Data file format
VERSION 0.7
FIELDS x y z
SIZE 4 4 4
TYPE F F F
COUNT 1 1 1
WIDTH 1446
HEIGHT 1
VIEWPOINT 0 0 0 1 0 0 0
POINTS 1446
DATA ascii
0.21077494 -0.35787275 0.8925001
0.21069051 -0.3463369 0.89600003
0.21107015 -0.33820391 0.89375007
0.21095207 -0.32228887 0.89325011
0.211448 -0.31674984 0.8953501
0.21134174 -0.30591547 0.89490002
0.21182935 -0.29449397 0.89185011
0.2121025 -0.28423291 0.89300001
0.21333462 -0.27542955 0.89818752
0.21330391 -0.26507199 0.89466667
0.21454149 -0.25753513 0.89308333
0.21459654 -0.24188435 0.89331251
0.21501486 -0.23442785 0.89254171
0.21659324 -0.2251433 0.89371431
0.21741703 -0.21869436 0.89000005
0.21899654 -0.20476036 0.89316672
0.2200349 -0.20070262 0.89575005
0.2206797 -0.19946568 0.89837503
0.21979885 -0.18271667 0.89975005
0.22074114 -0.18370503 0.89862508
0.22145256 -0.17444403 0.89855003
0.21955313 -0.16431238 0.89791673
0.2209679 -0.16466548 0.89462507
0.21997349 -0.15942325 0.89550006
0.22173452 -0.15529393 0.89565378
0.22206324 -0.14405611 0.89565384
0.22217943 -0.1348042 0.89706254
0.22367942 -0.12512895 0.89768749
0.22365066 -0.1145518 0.89485425
0.21990101 -0.10272321 0.89275002
0.22106156 -0.1067644 0.8941471
0.21995136 -0.097043306 0.89050007
0.22154114 -0.094596699 0.893525
0.22300798 -0.084308177 0.8963334
0.22388811 -0.075050704 0.89684099
0.22273701 -0.065653242 0.89402086
0.22824028 -0.054849889 0.89328575
0.22694138 -0.044701118 0.89355767
0.22708964 -0.037002429 0.89645839
0.2322551 -0.03343755 0.89843756
0.22417545 0.059050124 0.89291668
0.21960501 0.066948041 0.89400005
0.2208761 0.064783998 0.89244753
0.21789427 0.073806599 0.89345008
0.22043572 0.070974953 0.89083338
0.21284136 -0.48283377 0.90125006
0.21372697 -0.47908035 0.90500003
0.21426819 -0.46555945 0.90729171
0.21338749 -0.45752585 0.90356255
0.21325466 -0.44073534 0.90300006
0.21418455 -0.43681806 0.90693754
0.21278232 -0.42024079 0.90100002
0.21278232 -0.40072241 0.90100002
0.21269375 -0.39689797 0.90062499
0.21220773 -0.35636982 0.90375006
0.21311761 -0.34898418 0.90762508
0.21372697 -0.30263561 0.90500003
0.21471518 -0.28332508 0.90400004
0.2153832 -0.27439246 0.90681255
0.21551256 -0.2641274 0.90391666
0.21726404 -0.25345984 0.90441674
0.21740417 -0.24872448 0.90500003
0.21758434 -0.23789363 0.90575004
0.21900421 -0.22304647 0.90275002
0.21938495 -0.215177 0.90306258
0.2203415 -0.21059145 0.90700006
0.22147222 -0.2068145 0.9066
0.22171929 -0.19490539 0.90260726
0.21985991 -0.18093961 0.90000004
0.22139063 -0.18619521 0.90700001
0.21992098 -0.17977099 0.90025002
0.22086197 -0.17511429 0.90243751
0.21967342 -0.16220595 0.90425003
0.22038482 -0.16432209 0.90466666
0.21970379 -0.15671778 0.90437502
0.22066396 -0.1534688 0.90330011
0.22239651 -0.14669928 0.90466076
0.22219758 -0.13407005 0.90622222
0.22204216 -0.12418479 0.9021765
0.22241731 -0.11567868 0.90504169
0.22104843 -0.10472426 0.90654165
0.21985564 -0.098623797 0.90500009
0.22138114 -0.093808278 0.90381896
0.21963648 -0.085536562 0.90916663
0.22224507 -0.085338458 0.90530407
0.21962401 -0.073385917 0.90810013
0.22136083 -0.07476005 0.90277207
0.21995687 -0.066796131 0.90541673
0.22226723 -0.06444408 0.90468758
0.22471893 -0.05940355 0.90485001
0.23198222 -0.052124843 0.90608341
0.22723386 -0.043904874 0.90649992
0.23063208 -0.049556058 0.90400004
0.22729868 -0.036956251 0.90566188
0.22292119 0.059606317 0.90750003
0.22178921 0.064688981 0.90713471
0.21952611 0.074175112 0.90533334
0.22089279 0.071220055 0.90675008
0.21554671 -0.50449651 0.91571426
0.21562713 -0.49513784 0.91831255
0.21532108 -0.47586805 0.91175002
0.21596466 -0.4551371 0.91975003
0.21585244 -0.44239116 0.91400003
0.21508414 -0.42103603 0.91600007
0.21462919 -0.41395575 0.9140625
0.21540701 -0.40117466 0.91737509
0.21446776 -0.39447704 0.91337508
0.21502542 -0.38618714 0.91575003
0.21567117 -0.37990299 0.91850007
0.21555376 -0.3666459 0.91800004
0.21578856 -0.35149157 0.91900003
0.2146292 -0.34496987 0.91406256
0.2139101 -0.33609787 0.91100007
0.21548039 -0.32303321 0.91768754
0.21565942 -0.31770471 0.91845
0.21595576 -0.30207726 0.91443753
0.21598737 -0.29531351 0.91457146
0.21756269 -0.26652914 0.91425008
0.21961223 -0.24769595 0.91937506
0.21983647 -0.23787783 0.91512501
0.22052711 -0.23676088 0.91800004
0.2198378 -0.22668904 0.91000003
0.22158927 -0.22352874 0.91724998
0.22172605 -0.21445543 0.91781825
0.22350292 -0.20528364 0.91618752
0.22425711 -0.19388147 0.91800004
0.2213451 -0.18338054 0.91368753
0.2218578 -0.17495611 0.91743177
0.22106585 -0.16542761 0.91701555
0.21963827 -0.15658054 0.91430008
0.22059274 -0.15452442 0.91312504
0.22159454 -0.14437675 0.91196012
0.22156653 -0.1358456 0.91176391
0.22327183 -0.12405406 0.91671151
0.2216541 -0.11544297 0.91550893
0.22135942 -0.10559203 0.91502088
0.22104909 -0.094406843 0.91758949
0.21989821 -0.086871356 0.91025007
0.2202993 -0.083066083 0.913625
0.2199122 -0.076621912 0.91287506
0.22033136 -0.077830471 0.91410005
0.2199586 -0.068403803 0.91050005
0.22114491 -0.065175436 0.91467857
0.22612962 -0.059320014 0.91300005
0.23231973 -0.054837529 0.9133929
0.22690825 -0.043772612 0.91533345
0.23072484 -0.049134068 0.91900003
0.22694676 -0.036506079 0.91432506
0.23157698 -0.032815114 0.91500008
0.22205147 0.059869044 0.91150004
0.22068968 0.064811863 0.91263247
0.22056787 0.073896803 0.91404998
0.21778443 -0.50315952 0.92750007
0.21602336 -0.49138391 0.92000002
0.21653993 -0.48755917 0.92220002
0.21810728 -0.47160044 0.92887509
0.21721697 -0.46466878 0.9250834
0.21703807 -0.45524785 0.92432147
0.21763769 -0.44172141 0.92687505
0.21721207 -0.43459284 0.92506248
0.21665442 -0.42567414 0.92268753
0.21681583 -0.41504586 0.92337507
0.2170213 -0.40793464 0.92425007
0.21617013 -0.39137664 0.92062509
0.21631686 -0.3854937 0.92124999
0.21655168 -0.37521031 0.92225009
0.21619947 -0.36961383 0.92075002
0.21655169 -0.34898725 0.92225003
0.21682562 -0.33317569 0.92341667
0.2166691 -0.32793894 0.92275006
0.21661039 -0.31285948 0.92250001
0.21708001 -0.3097851 0.92450005
0.21907017 -0.29261914 0.92762506
0.2207763 -0.26410979 0.92600006
0.21982124 -0.25104678 0.92025006
0.22074088 -0.25585327 0.92410004
0.22073691 -0.24458253 0.92408341
0.22210573 -0.23344076 0.92457145
0.22310951 -0.22570403 0.92875004
0.22193578 -0.21351063 0.92334998
0.22386721 -0.20537904 0.92094445
0.22416215 -0.19365448 0.921875
0.22228131 -0.18573424 0.92322505
0.21975188 -0.17226559 0.92456245
0.22094639 -0.17618792 0.92555553
0.22105627 -0.16574901 0.92542505
0.2209906 -0.15448174 0.92394227
0.22131583 -0.14477937 0.92404419
0.22216584 -0.13387157 0.92544121
0.21976241 -0.127138 0.92525005
0.22165725 -0.12516139 0.92311537
0.22159052 -0.1134417 0.92591667
0.22214648 -0.10514411 0.92718339
0.21990085 -0.095336132 0.92058343
0.22082774 -0.096135817 0.92563891
0.22131664 -0.084753931 0.92302775
0.21999994 -0.077111572 0.92625004
0.22095636 -0.074789107 0.92528945
0.22251861 -0.064843386 0.9271667
0.2261335 -0.05903782 0.927091
0.23288076 -0.056277122 0.92687505
0.22773324 -0.045376953 0.9263078
0.23069748 -0.048770882 0.92387503
0.22778451 -0.036575977 0.92793751
0.23093867 -0.033705119 0.92585003
0.22337447 0.059314393 0.92206252
0.2212685 0.064868473 0.92369646
0.219649 0.075709008 0.92628574
0.22103161 0.073721744 0.92330772
0.21901719 -0.51713711 0.93275005
0.21848884 -0.49951175 0.93050003
0.21856432 -0.4845598 0.93082148
0.21854755 -0.47696358 0.93075007
0.21848884 -0.4528977 0.93050003
0.22036731 -0.44916746 0.93850005
0.21746205 -0.36447167 0.93150002
0.21794839 -0.35959542 0.93358344
0.21957484 -0.31144613 0.93512505
0.21974911 -0.29037833 0.93050003
0.21995574 -0.28371549 0.93137503
0.22007385 -0.28639147 0.93187511
0.22073592 -0.27648988 0.93467861
0.22296891 -0.26943886 0.93875003
0.22283036 -0.2540296 0.93816668
0.22297324 -0.24329431 0.93433332
0.2236581 -0.22310549 0.93631256
0.22303377 -0.21355754 0.93311119
0.22629957 -0.20519876 0.93648767
0.22538857 -0.19513436 0.93349999
0.21959424 -0.18176053 0.93341666
0.22166616 -0.18436448 0.93193758
0.21933191 -0.17630185 0.93185425
0.22071278 -0.17446738 0.93460006
0.2199564 -0.16169365 0.93675005
0.22082269 -0.16508244 0.93304694
0.22089262 -0.15523857 0.93454999
0.22152637 -0.14414001 0.93555778
0.22131638 -0.13704252 0.93400013
0.22155768 -0.12339643 0.93697232
0.21970692 -0.11273663 0.93568754
0.22138216 -0.11504099 0.93296868
0.2198977 -0.10966399 0.93650007
0.22100836 -0.10523359 0.93405557
0.22131227 -0.093877397 0.93444639
0.22171403 -0.085131586 0.93410295
0.21976817 -0.073435888 0.93380004
0.22042674 -0.073821522 0.93397224
0.21975094 -0.068409741 0.93587506
0.22104478 -0.065131769 0.93331939
0.22344629 -0.059187282 0.93366671
0.23330848 -0.052772485 0.93471432
0.22785378 -0.044999056 0.93642867
0.23118737 -0.049408138 0.93600005
0.22765632 -0.037132528 0.93537503
0.22252017 0.065198109 0.93686116
0.22117847 0.072295003 0.93656254
0.22119729 -0.52275026 0.94749999
0.22080043 -0.51668829 0.94580001
0.21969931 -0.50137073 0.94108337
0.21981603 -0.49781212 0.94158334
0.22083254 -0.49306446 0.94593751
0.22164962 -0.48332575 0.9494375
0.22163501 -0.47815198 0.94937503
0.22138874 -0.45507842 0.94284999
0.22164476 -0.433182 0.94941664
0.22157666 -0.42148387 0.94912505
0.2199133 -0.41002941 0.94200003
0.22067204 -0.41528711 0.94525003
0.21984035 -0.4067055 0.94168752
0.22039479 -0.40261772 0.94406253
0.22082767 -0.3950831 0.94591671
0.22119732 -0.38548484 0.94750011
0.21997167 -0.37314156 0.94225007
0.22040939 -0.37708122 0.94412506
0.22131403 -0.36129951 0.94800001
0.22086656 -0.35481057 0.94608337
0.2199133 -0.34753409 0.94200009
0.22014676 -0.34471118 0.94300008
0.2202343 -0.33207572 0.94337499
0.22080544 -0.32588801 0.94582146
0.22115979 -0.31114376 0.94187504
0.22179377 -0.30435428 0.94457501
0.222957 -0.27288315 0.94408339
0.22369142 -0.26396054 0.94246876
0.22353518 -0.25462797 0.94789582
0.22367132 -0.24550767 0.94511837
0.22431554 -0.23522982 0.94395661
0.22417493 -0.2239968 0.94671673
0.22348464 -0.21551271 0.94697988
0.22521755 -0.20502372 0.94543016
0.22538124 -0.19658467 0.94562501
0.22177809 -0.18567958 0.94587505
0.21975867 -0.17465779 0.94438893
0.22020467 -0.17379417 0.94508338
0.22051345 -0.16537221 0.94223225
0.21992789 -0.15463874 0.94206256
0.2206018 -0.15402664 0.94221878
0.219914 -0.14045779 0.94750005
0.22115476 -0.14608859 0.94337505
0.21941446 -0.13572787 0.94786364
0.22129029 -0.13375179 0.94503582
0.22182614 -0.12622122 0.94654179
0.22074376 -0.11512137 0.94487506
0.22096844 -0.10563731 0.94584382
0.2222051 -0.094235383 0.94572228
0.22146021 -0.085040994 0.94554687
0.22119467 -0.076048322 0.94585001
0.21968161 -0.065140262 0.94492865
0.22093152 -0.063805684 0.94342321
0.2245314 -0.059178736 0.94531256
0.23310232 -0.055953037 0.94635236
0.22770452 -0.043098085 0.94257134
0.22808172 -0.038331695 0.94412506
0.2193432 0.068122454 0.9432084
0.22180168 0.064926431 0.94380027
0.21919556 0.0736527 0.94140911
0.22073908 0.073201559 0.94008332
0.22235805 -0.5262233 0.95734382
0.22341511 -0.51568151 0.95700002
0.22186509 -0.50473827 0.95590633
0.2223704 -0.49875203 0.95808339
0.2218101 -0.48624825 0.95012504
0.22259802 -0.47376859 0.95350003
0.22355129 -0.46867216 0.95758337
0.22259802 -0.45247376 0.95350003
0.22226451 -0.44535166 0.95207137
0.22183929 -0.43870896 0.95025003
0.22181594 -0.42644137 0.95015013
0.22216731 -0.37453189 0.9572084
0.2221383 -0.36864838 0.9570834
0.22290927 -0.34386671 0.95483333
0.22271475 -0.33904496 0.95400006
0.22215056 -0.32143608 0.95158339
0.22343455 -0.31551373 0.9570834
0.22366196 -0.29531583 0.95253134
0.22354455 -0.28485358 0.95203125
0.22435206 -0.27478707 0.95363891
0.22501884 -0.26482472 0.95418757
0.22344917 -0.25767422 0.95162505
0.2240362 -0.24413754 0.95412511
0.22347246 -0.2342272 0.95649135
0.22408755 -0.22688416 0.95380002
0.22259876 -0.21334478 0.95394236
0.22404401 -0.20561717 0.95370841
0.22436644 -0.19379444 0.95404553
0.22181179 -0.1841871 0.95567852
0.21975604 -0.17573823 0.95800006
0.22053574 -0.1754192 0.95627284
0.22138816 -0.16575521 0.9544723
0.22121233 -0.1548394 0.95309377
0.22083518 -0.14506452 0.95356256
0.21943831 -0.1341098 0.95100003
0.21925963 -0.12367249 0.95840907
0.22130844 -0.12486295 0.95484531
0.21941987 -0.11850615 0.95880002
0.22150865 -0.11601873 0.95821887
0.22153196 -0.1037802 0.95567858
0.2217759 -0.095359281 0.95494741
0.22216247 -0.085518405 0.95718747
0.22142991 -0.07490918 0.95403135
0.2211376 -0.063033238 0.95612508
0.22623509 -0.058000121 0.95433342
0.23198295 -0.053779535 0.9528001
0.22889398 -0.045053437 0.9510417
0.23103061 -0.049557343 0.95100003
0.2289715 -0.037678 0.95181251
0.23414937 -0.03322199 0.95385295
0.21953061 0.066354163 0.95139998
0.22177985 0.062212259 0.95110005
0.21989982 0.070336662 0.95300007
0.22070742 0.073835552 0.95650005
0.21954115 -0.53040129 0.96850002
0.22223893 -0.53362477 0.96485007
0.21966457 -0.52724433 0.96712494
0.22197118 -0.52453017 0.96412939
0.22414184 -0.51534349 0.96854168
0.22351098 -0.50687534 0.96865004
0.22384606 -0.49483281 0.96661538
0.22393563 -0.48634592 0.96608329
0.22524938 -0.46569696 0.96485716
0.22462852 -0.4533695 0.96781248
0.22448349 -0.44521821 0.96718752
0.2245477 -0.4355244 0.96746433
0.22345352 -0.42493001 0.96275014
0.22325043 -0.41542307 0.96187502
0.22337246 -0.40418568 0.96381253
0.22355455 -0.39584064 0.96578848
0.22314681 -0.38464352 0.96142864
0.22422236 -0.36491036 0.96606255
0.22450957 -0.35686716 0.96730006
0.22478808 -0.34157625 0.96849996
0.22477648 -0.33631152 0.96845007
0.22475852 -0.31423539 0.96775001
0.2248847 -0.30472484 0.96575004
0.22529213 -0.29571989 0.96763462
0.22490986 -0.28386909 0.96402782
0.22530794 -0.27491447 0.96586674
0.2247566 -0.26561683 0.96334219
0.22407834 -0.25508693 0.96245003
0.22504646 -0.2455363 0.96468759
0.22134539 -0.23358011 0.96177781
0.22288184 -0.22612043 0.96381265
0.22261268 -0.21498896 0.96270448
0.22486594 -0.2043993 0.96471673
0.2247369 -0.195904 0.96512508
0.22193488 -0.18538128 0.9665001
0.21972783 -0.17485258 0.96850002
0.22085054 -0.1746044 0.96610427
0.21980561 -0.16868818 0.96966672
0.22245611 -0.1663539 0.96881938
0.22230613 -0.15456225 0.96342862
0.22135155 -0.14457229 0.96382505
0.21996926 -0.13385428 0.96462506
0.2205299 -0.13525657 0.96374995
0.21960439 -0.12499358 0.96686119
0.21901722 -0.11376838 0.96045005
0.22058287 -0.11211268 0.96018749
0.21936281 -0.10447168 0.96628124
0.22079678 -0.10439247 0.96396875
0.21896565 -0.095087849 0.96885729
0.22141701 -0.094711319 0.96651387
0.21920651 -0.086503744 0.9694376
0.22215229 -0.085212715 0.96844792
0.22248815 -0.075823121 0.96706265
0.22136265 -0.064969681 0.96643758
0.22343217 -0.058981456 0.96831256
0.232705 -0.052419364 0.9641667
0.22866453 -0.043488327 0.96550012
0.23073642 -0.047893953 0.9650417
0.2289528 -0.037990481 0.9634546
0.23316081 -0.033305965 0.96515006
0.21991225 0.069217563 0.96437502
0.22120455 0.065951787 0.96432495
0.21968876 0.074399129 0.9650358
0.22112985 0.074811764 0.96317863
0.22365177 -0.54149085 0.97787505
0.22539927 -0.52342623 0.97874999
0.22446895 -0.51594794 0.9774
0.22381228 -0.50349951 0.97480774
0.2232988 -0.49313527 0.97449994
0.22479862 -0.48514625 0.97491175
0.22648242 -0.47559634 0.97580016
0.22557417 -0.4642013 0.97671151
0.22507405 -0.4563725 0.97625005
0.22563982 -0.44516897 0.97859377
0.22418801 -0.43454432 0.97704762
0.2242922 -0.42442054 0.97203577
0.22451471 -0.41561922 0.97300005
0.22402687 -0.40551931 0.97446871
0.22421505 -0.39426431 0.97504169
0.22479354 -0.38514003 0.97420835
0.22468056 -0.37570992 0.97371882
0.22658686 -0.355542 0.97625005
0.22606464 -0.34681404 0.9740001
0.22542636 -0.3320249 0.97125006
0.22555086 -0.32473153 0.97305572
0.22514926 -0.31506991 0.97575009
0.22455589 -0.30436307 0.97490007
0.22431058 -0.29439241 0.97338891
0.22435188 -0.2850875 0.9728452
0.22461206 -0.27423987 0.97238636
0.22496796 -0.26465371 0.97496432
0.22484292 -0.25342205 0.97566074
0.22444806 -0.24552745 0.97639
0.22222176 -0.23466292 0.97378129
0.22305351 -0.22247782 0.97237504
0.22387908 -0.21413036 0.97440916
0.22391495 -0.20505746 0.97514135
0.22289199 -0.19512764 0.97325003
0.22067328 -0.18617599 0.97117501
0.21967529 -0.17224123 0.9749167
0.2203545 -0.17656785 0.97695845
0.21993786 -0.16550547 0.97025001
0.22128098 -0.16320352 0.97328579
0.22198755 -0.15511186 0.97541672
0.21994755 -0.14932674 0.97612506
0.22147574 -0.14608459 0.97498536
0.22121699 -0.13541912 0.97589296
0.22053289 -0.12907186 0.97287506
0.21993786 -0.11821374 0.97025001
0.22035722 -0.11383145 0.97210008
0.2191764 -0.10386916 0.97466671
0.22056985 -0.10850509 0.97450006
0.21866047 -0.095149837 0.97628134
0.21919319 -0.084526427 0.9744643
0.22025737 -0.080054723 0.97750002
0.22196437 -0.075070396 0.97296429
0.22076574 -0.064579375 0.97430003
0.22235601 -0.059056789 0.9731667
0.23343495 -0.054735411 0.97670013
0.22641009 -0.042316306 0.97398347
0.23103601 -0.048851892 0.97550005
0.22712457 -0.035938632 0.97451788
0.2323316 -0.03304759 0.97193748
0.22276224 0.065141015 0.97495842
0.21999453 0.074256256 0.97050005
0.2207879 0.071885459 0.97400004
0.22361605 -0.54460341 0.98550004
0.22314177 -0.53420991 0.98554999
0.22553843 -0.52635872 0.98831254
0.22343612 -0.51435542 0.98511255
0.22299436 -0.50530082 0.98264068
0.22306339 -0.49551293 0.9820835
0.22502305 -0.48649737 0.98428577
0.22497179 -0.46349066 0.98656255
0.22566038 -0.45629832 0.98638636
0.22487891 -0.44369245 0.98264998
0.22353232 -0.43066031 0.98025006
0.22493613 -0.42647743 0.98307151
0.22529419 -0.41553736 0.98214293
0.22468467 -0.40557551 0.98433334
0.22479349 -0.39550731 0.98359382
0.22545895 -0.38422003 0.984025
0.22441979 -0.37451789 0.98313051
0.22488989 -0.36482263 0.98204464
0.22552484 -0.3551133 0.98409677
0.22602084 -0.34588149 0.98360288
0.22749792 -0.33570877 0.9859286
0.22652861 -0.32544351 0.98494446
0.22584285 -0.31431571 0.98583341
0.22470155 -0.30458874 0.98648441
0.22547774 -0.294507 0.98878127
0.22540009 -0.28560293 0.98650002
0.22527573 -0.27522051 0.98206252
0.2262793 -0.26576266 0.98643756
0.22512111 -0.25606409 0.98471439
0.22328754 -0.24379538 0.9867143
0.22246651 -0.23500843 0.98308933
0.22404361 -0.22533768 0.98409086
0.22373682 -0.21480839 0.98384613
0.22253203 -0.20437787 0.98396152
0.22213796 -0.19597551 0.98407495
0.22134377 -0.18552296 0.98232144
0.22149794 -0.17338248 0.98895007
0.22083586 -0.1638902 0.98352081
0.21970136 -0.15471065 0.98092872
0.22082068 -0.1585442 0.98000002
0.22151737 -0.14539389 0.98531246
0.22195651 -0.13449517 0.98636121
0.21981716 -0.12231094 0.98741674
0.22084421 -0.12493747 0.98394126
0.21969658 -0.11890323 0.98687506
0.22074708 -0.1150934 0.9842059
0.21975525 -0.10437375 0.98475009
0.22036153 -0.10798687 0.98687506
0.21907742 -0.09458372 0.98409379
0.21970542 -0.084681138 0.98512495
0.22072522 -0.081377059 0.98550004
0.21901833 -0.074322097 0.98633337
0.22136733 -0.074837327 0.98305273
0.21948324 -0.068729065 0.98591667
0.22104776 -0.065764688 0.98495841
0.22668004 -0.057799146 0.98686558
0.23232181 -0.054701515 0.98092496
0.22672485 -0.043707885 0.98507148
0.23174629 -0.049284257 0.98412502
0.22664154 -0.034515806 0.98455
0.23163056 -0.031280939 0.98362505
0.22241363 0.066122502 0.98496431
0.22105125 0.073129244 0.98696429
0.22396988 -0.55077398 0.99100006
0.22343276 -0.5467962 0.99384379
0.22354768 -0.53437513 0.99318194
0.22466163 -0.52545804 0.99508339
0.22270578 -0.51487398 0.99359375
0.22383444 -0.50434422 0.99337518
0.22377411 -0.49435923 0.99396431
0.22508533 -0.48429203 0.99408859
0.22702853 -0.47655487 0.99623221
0.22578058 -0.46570593 0.99517864
0.22629155 -0.4550401 0.99343199
0.22514586 -0.44466498 0.99125004
0.22480641 -0.43464363 0.99238896
0.22503063 -0.42422616 0.99300003
0.22529194 -0.41553637 0.99317652
0.22532156 -0.40439779 0.99400014
0.22684832 -0.39462137 0.99479169
0.22532663 -0.38526186 0.99462509
0.22413722 -0.37438679 0.99471885
0.22458482 -0.36552027 0.99075001
0.22574808 -0.35192651 0.99737507
0.22699806 -0.34534755 0.9974286
0.22818393 -0.33588517 0.99768764
0.22682363 -0.32424411 0.99616677
0.22558416 -0.31534171 0.99590635
0.22371334 -0.30489874 0.9920938
0.22500409 -0.29780352 0.99458337
0.22598369 -0.28309268 0.99100012
0.22576083 -0.27359658 0.99520326
0.22594613 -0.26584512 0.99676138
0.2249832 -0.25420818 0.99762499
0.22410578 -0.24636602 0.99758339
0.22310464 -0.23553573 0.99412513
0.22459443 -0.22434022 0.99228132
0.22345114 -0.21476264 0.99737513
0.22243164 -0.20517907 0.99553335
0.22265117 -0.19538411 0.99691677
0.21933238 -0.18228711 0.99737501
0.22166409 -0.18446541 0.99542862
0.21932322 -0.17755198 0.99733335
0.22152884 -0.17584276 0.99641073
0.22163257 -0.16511019 0.99557149
0.22082663 -0.15417485 0.99377507
0.22177632 -0.14508465 0.99651194
0.21961068 -0.13285162 0.99966675
0.22210602 -0.13593347 0.99861258
0.21885315 -0.12446268 0.9955126
0.22070231 -0.12888174 0.99341673
0.2193031 -0.11811288 0.99550009
0.22065313 -0.11305393 0.9942084
0.2207346 -0.10466658 0.99760717
0.22048962 -0.095774956 0.99650002
0.22096902 -0.081789128 0.9986667
0.21934156 -0.07223434 0.99741673
0.22026835 -0.078159943 0.99550009
0.21935971 -0.066729672 0.99596882
0.2210083 -0.06363783 0.99552274
0.22357027 -0.058221407 0.99339998
0.23431306 -0.053168587 0.99444997
0.22718012 -0.044023592 0.9933126
0.23120585 -0.048397701 0.99325001
0.22735183 -0.034869228 0.99465007
0.23570724 -0.030634522 0.99143749
0.22240224 0.065705433 0.99420005
0.21922871 0.07469584 0.99385005
0.22091946 0.075588197 0.99237508
0.22454397 -0.55448061 1.00255
0.22405156 -0.54504824 1.0064375
0.22418244 -0.53437066 1.0016112
0.22330947 -0.52474284 1.0035536
0.2240911 -0.5163728 1.0057501
0.22467965 -0.50504941 1.0038334
0.22358936 -0.49569276 1.0027046
0.22264627 -0.48340058 1.0001251
0.22697026 -0.47595659 1.0072917
0.22605455 -0.46435729 1.0053929
0.22718926 -0.45450857 1.0049773
0.22636938 -0.44477174 1.0046251
0.22542801 -0.43465334 1.0030358
0.22520468 -0.42404813 1.0055001
0.22594248 -0.41354716 1.0049319
0.22615749 -0.40485704 1.0055782
0.22719078 -0.39501646 1.0049772
0.22547714 -0.38442457 1.0057083
0.22529478 -0.37374371 1.0053
0.22574063 -0.36559668 1.0054668
0.2251423 -0.35500515 1.0037084
0.22716632 -0.3439613 1.0045501
0.22819848 -0.33707032 1.0043
0.22648963 -0.32489467 1.0057751
0.22548465 -0.31553847 1.0067501
0.22473276 -0.3049778 1.0033928
0.22567545 -0.29427516 1.0053611
0.22653879 -0.28517979 1.0066458
0.22504885 -0.27637234 1.0052501
0.22419904 -0.2640698 1.0022894
0.22366001 -0.25556657 1.0019091
0.22406545 -0.2452763 1.0065001
0.22449312 -0.23400064 1.0067614
0.22505796 -0.22456554 1.00225
0.2225887 -0.2150252 1.0052187
0.22278129 -0.20514448 1.0068572
0.22289586 -0.19366369 1.0073751
0.22201914 -0.18940327 1.0065
0.22238763 -0.17391677 1.00755
0.22231506 -0.16527407 1.00475
0.2213885 -0.15713006 1.0005625
0.21964037 -0.14181399 1.0008334
0.21895532 -0.13609345 1.0002813
0.21887639 -0.12482615 1.0077143
0.21986659 -0.11916449 1.006
0.22123899 -0.11432788 1.0060556
0.22156017 -0.10262594 1.0085417
0.21960206 -0.093823455 1.006875
0.22079776 -0.094630845 1.0045625
0.21906595 -0.084787935 1.0075418
0.22082405 -0.085255817 1.0048971
0.21925202 -0.07640437 1.007875
0.2204559 -0.076353997 1.0064319
0.21949503 -0.06593354 1.0043
0.22070429 -0.061133109 1.003625
0.22273891 -0.058514785 1.003
0.23492351 -0.053668071 1.0063
0.2271194 -0.043480575 1.0039376
0.23165312 -0.048918758 1.0039376
0.22683482 -0.036008094 1.0041072
0.23129797 -0.031093141 1.0063335
0.23495877 -0.029366568 1.0093751
0.2224673 0.066403911 1.0048251
0.22034065 0.073153302 1.0050626
0.22606903 -0.56301576 1.0155001
0.22549395 -0.55541521 1.0129167
0.22375326 -0.54217565 1.01125
0.22397454 -0.53517371 1.0122501
0.22424164 -0.52566046 1.0172001
0.22537488 -0.51537359 1.0137501
0.22404809 -0.50392056 1.0144501
0.22295269 -0.49511081 1.0138501
0.22605523 -0.48481342 1.0159999
0.2270581 -0.47366092 1.0155357
0.22675997 -0.46403414 1.0158612
0.22789045 -0.45573068 1.0134168
0.22649796 -0.44461212 1.0170166
0.22580457 -0.4363493 1.0148333
0.22663669 -0.42714018 1.01805
0.22574061 -0.4158816 1.0151591
0.22560553 -0.40404215 1.014012
0.22628334 -0.39551589 1.0139999
0.22591816 -0.38512939 1.0141389
0.22549616 -0.37473011 1.0152501
0.22536992 -0.36474454 1.0156324
0.22692229 -0.35561451 1.0185626
0.22793728 -0.34375939 1.0115834
0.22830841 -0.33457023 1.0128036
0.2265531 -0.32510337 1.0163057
0.22616421 -0.31409985 1.0173057
0.22543614 -0.30464008 1.0161965
0.22502272 -0.28532854 1.0108
0.22513616 -0.27275705 1.0175
0.22493072 -0.2649352 1.0165714
0.22484513 -0.2539992 1.0178864
0.22461446 -0.24567665 1.0172223
0.22379823 -0.23213243 1.01395
0.2240748 -0.22577097 1.0119022
0.22384742 -0.21498191 1.0179063
0.22357175 -0.20389415 1.0158751
0.22320063 -0.19536704 1.0142779
0.22140466 -0.18547527 1.0121429
0.22203417 -0.17447554 1.0150833
0.22297384 -0.16588464 1.0147188
0.2223365 -0.15535188 1.0110358
0.22116178 -0.14581975 1.0129791
0.21971224 -0.13283592 1.0115626
0.22007877 -0.13785791 1.01325
0.21968853 -0.12331941 1.0178001
0.22009426 -0.12385911 1.0165
0.21922049 -0.11381443 1.0167955
0.22080041 -0.11392774 1.0128959
0.21890116 -0.10537408 1.0130973
0.22123305 -0.10603573 1.0106876
0.21964435 -0.094592825 1.0112501
0.21945432 -0.088902786 1.010375
0.21986157 -0.076048046 1.0122501
0.22051316 -0.072836369 1.0152501
0.22060047 -0.065245271 1.0147501
0.22649127 -0.057495553 1.0174063
0.23256755 -0.05478885 1.0129422
0.22759399 -0.043374751 1.0174
0.23093922 -0.048117589 1.0157501
0.22699928 -0.034774512 1.0150625
0.23060143 -0.03079029 1.01125
0.23434597 -0.029491432 1.0136667
0.22250769 0.067085467 1.0153929
0.22056746 0.074953564 1.0155001
0.2265427 -0.57078195 1.0270001
0.2266468 -0.56576657 1.0266137
0.22629642 -0.55415386 1.0245358
0.2252333 -0.54496342 1.0242084
0.22433075 -0.53472161 1.0235454
0.22331268 -0.5237304 1.0240148
0.22640429 -0.51684535 1.0281788
0.22377998 -0.50695497 1.0286876
0.22513287 -0.49345201 1.0264643
0.22678709 -0.48434672 1.0262251
0.22713286 -0.47493029 1.0249584
0.22786674 -0.46342579 1.0276325
0.22676316 -0.45517114 1.0259912
0.22493522 -0.44520155 1.0279251
0.22565618 -0.43552116 1.0271503
0.22624572 -0.42463729 1.0242001
0.22539671 -0.41442204 1.0235555
0.22597091 -0.40761963 1.0275625
0.22612394 -0.39502218 1.0219643
0.22634515 -0.38531253 1.02525
0.22523235 -0.37550762 1.0236363
0.2261221 -0.36473665 1.02825
0.22792743 -0.35414979 1.0267667
0.22864382 -0.34508216 1.0270716
0.22828749 -0.33567852 1.0247779
0.22689706 -0.32487538 1.0254585
0.2259106 -0.31620234 1.021
0.22625354 -0.29437768 1.0232501
0.22592404 -0.2845659 1.0239615
0.22517805 -0.27497727 1.0227001
0.22597526 -0.26575258 1.028375
0.22489378 -0.25440371 1.0252
0.22465582 -0.24504316 1.02475
0.22451903 -0.23569496 1.0241251
0.22417395 -0.22503704 1.0264168
0.22467481 -0.21502367 1.028
0.22379486 -0.20442854 1.026625
0.2235855 -0.1960873 1.0254064
0.2225042 -0.18445861 1.0244167
0.22154458 -0.17400564 1.0218215
0.21928999 -0.16563153 1.0266945
0.22201832 -0.16453341 1.0246966
0.22192389 -0.15492375 1.0253056
0.22117534 -0.14626615 1.0258638
0.22085719 -0.13506091 1.0232142
0.21955988 -0.12024689 1.026875
0.22048457 -0.12493964 1.0266501
0.21868427 -0.11520438 1.0240752
0.21883801 -0.10606575 1.0241501
0.2201634 -0.10010758 1.0200001
0.22074154 -0.094830923 1.0226786
0.22045198 -0.084214032 1.0232751
0.21942523 -0.072465748 1.0295
0.22133327 -0.07443653 1.0279039
0.2192121 -0.066824846 1.0285001
0.22088465 -0.06433744 1.0250667
0.22548334 -0.057874046 1.02535
0.2347068 -0.053212881 1.0211667
0.22650607 -0.042977877 1.0243251
0.23227555 -0.048686054 1.02775
0.22603774 -0.034933217 1.0257639
0.23643132 -0.028600341 1.0226668
0.222717 0.067510828 1.0243334
0.22064905 0.0712955 1.0222501
0.2262812 -0.57261646 1.0353501
0.22654346 -0.55363703 1.03655
0.22511376 -0.54397553 1.0346818
0.2231245 -0.53565663 1.0348126
0.22247262 -0.52406538 1.0352501
0.22515978 -0.51710248 1.0339999
0.22441119 -0.50363779 1.0364376
0.22414865 -0.49318823 1.0348752
0.22484343 -0.48512015 1.036744
0.22640382 -0.47658885 1.0377083
0.22588876 -0.46594015 1.031
0.22463997 -0.45439047 1.03425
0.22344483 -0.44523093 1.034125
0.22425906 -0.43418109 1.0340147
0.22617492 -0.42568132 1.0372046
0.2259506 -0.41482264 1.035125
0.22661811 -0.40397391 1.0365
0.2268368 -0.39641237 1.0352292
0.22621483 -0.38643649 1.0329167
0.22569963 -0.37541556 1.0379046
0.22609316 -0.36504993 1.0377084
0.22599551 -0.35522705 1.0329862
0.22692381 -0.34622657 1.0336365
0.22796968 -0.33575001 1.0339288
0.22726746 -0.32460895 1.0334584
0.22700465 -0.31468937 1.0330626
0.2264663 -0.3048811 1.033
0.2266735 -0.29570323 1.0341923
0.22657155 -0.2856147 1.0366786
0.2256674 -0.27539369 1.0325418
0.22577852 -0.26571986 1.0357293
0.22542882 -0.25624689 1.03145
0.22504015 -0.24365498 1.0361001
0.225087 -0.23594488 1.0368541
0.22413588 -0.22516572 1.0351667
0.22501503 -0.21449679 1.0374168
0.22413301 -0.20576222 1.0374644
0.22350574 -0.19381237 1.0329001
0.21983293 -0.18268403 1.0340502
0.22168128 -0.18511905 1.0319853
0.21968733 -0.17483851 1.0373214
0.221413 -0.17601982 1.0337223
0.21983103 -0.16581896 1.0380001
0.22004281 -0.16105551 1.039
0.2195318 -0.15966043 1.0300001
0.22032346 -0.15463781 1.0337144
0.22132187 -0.14481944 1.0354091
0.22200696 -0.13522299 1.0350357
0.21992633 -0.12300871 1.03845
0.22098534 -0.12630795 1.035893
0.2198613 -0.11453927 1.0381429
0.2198267 -0.10611078 1.0335834
0.22101827 -0.10239383 1.0351071
0.21993694 -0.094892927 1.0385001
0.22165667 -0.09472657 1.0366786
0.22124429 -0.085586309 1.0336667
0.21903862 -0.075604662 1.0342709
0.22066747 -0.078088604 1.0331668
0.21923099 -0.067955695 1.0351667
0.2214496 -0.063521944 1.039
0.22631963 -0.057891089 1.03555
0.23329277 -0.053409904 1.0334079
0.22775353 -0.044754766 1.0356786
0.23179702 -0.049227122 1.0362
0.22549915 -0.036489028 1.0371251
0.23136026 -0.030144829 1.0361251
0.23351026 -0.029272988 1.0301251
0.2240499 0.067261815 1.03475
0.2232392 0.080534294 1.03425
0.2279342 -0.58181947 1.0494167
0.22799566 -0.56300241 1.0448126
0.22628577 -0.55444199 1.0429168
0.22461347 -0.54541665 1.046375
0.22349007 -0.53450066 1.0485715
0.22388358 -0.52311748 1.0456786
0.22466701 -0.51547825 1.0416875
0.22469616 -0.50245243 1.041
0.22485806 -0.49999353 1.0417501
0.22202864 -0.48298949 1.0400625
0.2257797 -0.47482488 1.04275
0.22637761 -0.46566272 1.0422502
0.22492585 -0.45447826 1.0445312
0.22396037 -0.44459578 1.044143
0.22577126 -0.43522674 1.0478572
0.22585188 -0.4239713 1.0458653
0.22599202 -0.41565311 1.0448333
0.22623196 -0.40480629 1.04625
0.22638869 -0.39435187 1.0435313
0.22554882 -0.38480693 1.0424423
0.22498398 -0.37184736 1.0423335
0.22551303 -0.36536318 1.0439688
0.22671425 -0.3525824 1.0438001
0.22783683 -0.34473506 1.0457144
0.22886637 -0.33529821 1.0471786
0.22842929 -0.32474938 1.0451787
0.22797175 -0.31509969 1.0452501
0.22709613 -0.30475694 1.046375
0.22664675 -0.29599941 1.0458636
0.22654833 -0.28419426 1.046
0.22542863 -0.27531427 1.0447251
0.22620173 -0.26520497 1.0447084
0.22631423 -0.25533041 1.0419585
0.22507188 -0.24503502 1.0480001
0.2242521 -0.2349392 1.0433124
0.2248261 -0.22521527 1.0455501
0.22485188 -0.21488814 1.044639
0.22466221 -0.20438752 1.0465938
0.22310163 -0.19555378 1.0455883
0.22066493 -0.18620008 1.0419376
0.22087666 -0.1749285 1.0496502
0.22064006 -0.164711 1.0476875
0.22124189 -0.15551467 1.0455
0.21913938 -0.1426781 1.0471786
0.22099994 -0.14462474 1.0445577
0.21939933 -0.13819598 1.0443125
0.22119208 -0.13457753 1.0428678
0.22098535 -0.12883979 1.0401251
0.22084512 -0.11010765 1.0495001
0.21942456 -0.10429199 1.0481501
0.22063649 -0.10470011 1.04515
0.21984555 -0.095464699 1.0447501
0.2203815 -0.095330097 1.0432751
0.21935527 -0.084421612 1.0452292
0.22119504 -0.085311942 1.0416666
0.21915106 -0.075239293 1.0428001
0.21976666 -0.06926997 1.0443751
0.22179732 -0.063308939 1.0458057
0.22623119 -0.057879455 1.0455
0.22640127 -0.041744377 1.045625
0.22748052 -0.034349002 1.0465313
0.23033586 -0.03028666 1.041
0.23402967 -0.028985858 1.0449167
0.2243147 0.067911945 1.0447084
0.23365967 0.062872648 1.0432501
0.22716312 -0.57372439 1.055337
0.22752334 -0.56682003 1.0532334
0.22617854 -0.55464846 1.0545001
0.22412995 -0.54593599 1.0560555
0.22466485 -0.52517259 1.0540833
0.2249963 -0.5141564 1.0544707
0.22516613 -0.50495321 1.0535715
0.22368929 -0.49590451 1.0547223
0.22508568 -0.48539457 1.0554546
0.2271408 -0.47462592 1.0531563
0.2265778 -0.46548596 1.053025
0.22535072 -0.45550302 1.055393
0.22458617 -0.44438937 1.0537144
0.22616714 -0.43470848 1.0536944
0.22575291 -0.42748994 1.0525
0.22684114 -0.41262555 1.0509375
0.22671355 -0.40482923 1.0584723
0.22682534 -0.39515969 1.0575
0.22555986 -0.38484052 1.0516001
0.22612154 -0.37537032 1.0542188
0.22490422 -0.36418369 1.0552188
0.22529227 -0.355643 1.0553066
0.22728086 -0.346962 1.0565168
0.22985281 -0.33167771 1.0582501
0.2300157 -0.33334658 1.059
0.22813858 -0.32429451 1.0555359
0.22767654 -0.31635162 1.0552344
0.22672027 -0.30483523 1.0540557
0.22700784 -0.29452467 1.0550251
0.2258748 -0.28501028 1.0539062
0.22480537 -0.27332413 1.0547501
0.22653407 -0.2651816 1.05775
0.22727914 -0.2546995 1.0573958
0.22521462 -0.24535449 1.0574168
0.22536643 -0.23476592 1.0573751
0.22547138 -0.22343183 1.0511876
0.22531694 -0.21588911 1.0549169
0.22467013 -0.20430584 1.0568001
0.22254606 -0.19257493 1.0575833
0.22139387 -0.18467407 1.0560833
0.21974754 -0.17194457 1.0561876
0.22083247 -0.17674477 1.05625
0.21932991 -0.16509804 1.0537885
0.22078265 -0.16154553 1.056
0.21885125 -0.15526858 1.0570358
0.22124621 -0.15494049 1.0548036
0.21846689 -0.14593925 1.053327
0.22112799 -0.13432121 1.0561389
0.22125094 -0.12454543 1.0514287
0.21926072 -0.11146279 1.0569501
0.22098115 -0.11466785 1.05355
0.21870281 -0.10593064 1.0528864
0.22085813 -0.094633333 1.0572188
0.21961203 -0.085154511 1.05725
0.22031222 -0.088439815 1.05375
0.21978955 -0.076130457 1.0512501
0.22041091 -0.073973581 1.0559375
0.22231853 -0.063897759 1.0548126
0.22554837 -0.058540516 1.054875
0.23358829 -0.052627508 1.0508749
0.22736003 -0.043196738 1.05225
0.23180929 -0.048359297 1.0508749
0.22681086 -0.034822725 1.0561001
0.23068507 -0.03070852 1.0555
0.2299614 -0.029369595 1.05875
0.23209541 -0.029277129 1.0554167
0.22366023 0.067955993 1.0532143
0.22776644 -0.59247679 1.068639
0.22862843 -0.58712161 1.0684376
0.22613616 -0.56449622 1.0619092
0.22534053 -0.55557036 1.0651667
0.22459616 -0.54129916 1.0605
0.2248053 -0.53377032 1.0641155
0.22409584 -0.5246554 1.0655544
0.22318824 -0.51563007 1.0636407
0.22489871 -0.50551158 1.0648572
0.22420318 -0.49478474 1.0654584
0.22579986 -0.4842934 1.0630167
0.22747597 -0.47645143 1.0642046
0.22618443 -0.4642607 1.0620626
0.22570802 -0.45451918 1.06575
0.22665614 -0.44485369 1.0668126
0.22754578 -0.43579459 1.0676
0.22639848 -0.42426887 1.061375
0.22701702 -0.41509461 1.0644882
0.22655594 -0.40415367 1.0650001
0.22650382 -0.39441559 1.0663655
0.22637218 -0.38392472 1.0620939
0.22637339 -0.37410188 1.0648
0.22321242 -0.36764842 1.06075
0.2239529 -0.35496929 1.0625626
0.2271658 -0.34420547 1.0633638
0.23023291 -0.34083724 1.0600001
0.22961554 -0.33618984 1.0647501
0.23049083 -0.3376275 1.0611876
0.22802337 -0.32539698 1.0664688
0.22782631 -0.31277117 1.0621667
0.22674643 -0.3048296 1.0638572
0.22715992 -0.29526383 1.0645682
0.22573176 -0.28574881 1.0638251
0.22478564 -0.27456692 1.0636667
0.2241016 -0.26324603 1.0615624
0.22507949 -0.25539625 1.0627896
0.22474961 -0.24573405 1.0639499
0.22623746 -0.23645863 1.0682501
0.22613907 -0.2247998 1.0610001
0.22556682 -0.21485524 1.0650834
0.22481261 -0.20470679 1.0654286
0.22253856 -0.19345272 1.0644063
0.22079088 -0.1844615 1.0639286
0.21988261 -0.17165524 1.0655
0.22029267 -0.17664695 1.0651668
0.21925321 -0.16584507 1.0624502
0.21847369 -0.15220393 1.0656668
0.21881028 -0.14646293 1.0659001
0.22081071 -0.14149319 1.0664999
0.2215112 -0.13498472 1.0663929
0.2188438 -0.12181508 1.0627918
0.22127406 -0.12518346 1.0624834
0.22110945 -0.11777904 1.061
0.22054388 -0.10304306 1.0667144
0.22062665 -0.095505491 1.0658847
0.22051647 -0.084618859 1.0685714
0.22119072 -0.075668581 1.0648501
0.22292697 -0.064803749 1.0639583
0.22563252 -0.058936857 1.062
0.23389578 -0.054531876 1.0665909
0.2274314 -0.043120649 1.062
0.23226993 -0.048186567 1.06275
0.2259666 -0.03440202 1.063575
0.22858986 -0.029470151 1.0623751
0.22338232 0.068509266 1.0650001
0.22474128 -0.59184003 1.0733463
0.22570647 -0.58533865 1.0756409
0.22553951 -0.57614428 1.0752813
0.22533023 -0.56500751 1.0757679
0.22452208 -0.55572546 1.0746667
0.22577514 -0.54546356 1.0729287
0.22475001 -0.53725469 1.0722001
0.22259802 -0.52811646 1.071625
0.22516093 -0.51402611 1.0755501
0.22477587 -0.50465727 1.0762709
0.22417477 -0.49444669 1.0757143
0.22569092 -0.48523369 1.0753124
0.22643296 -0.47486582 1.0726072
0.22682904 -0.46624681 1.0750626
0.22600198 -0.4542214 1.074875
0.22632934 -0.44487044 1.0755737
0.22657992 -0.43476909 1.0730385
0.22692472 -0.42629147 1.0749376
0.22672455 -0.41553393 1.0762917
0.22604202 -0.40418708 1.0723182
0.22700015 -0.39871579 1.0787501
0.22743176 -0.38448247 1.0750417
0.22621886 -0.37634787 1.0758057
0.22423892 -0.36446682 1.0725313
0.22561733 -0.35457096 1.0733334
0.22713368 -0.34389013 1.0752333
0.22866809 -0.33517385 1.0756912
0.23054321 -0.33833027 1.0748334
0.2284863 -0.32661736 1.0775001
0.2275354 -0.31521311 1.0764892
0.22643006 -0.30486998 1.0731667
0.22704516 -0.29548365 1.0740358
0.22639517 -0.28549281 1.0758752
0.22523393 -0.27536449 1.0733215
0.22484654 -0.26498634 1.0754375
0.22510602 -0.25436026 1.0766786
0.22627451 -0.24483599 1.0764583
0.22623512 -0.23425426 1.0735834
0.22681366 -0.22545628 1.0744108
0.22579019 -0.2149965 1.0730001
0.22526984 -0.20530729 1.0733001
0.22337726 -0.19591635 1.0777222
0.22101124 -0.18458208 1.073625
0.22091675 -0.17506172 1.0775834
0.21949121 -0.16122532 1.0777501
0.22050427 -0.16527016 1.0755714
0.21891339 -0.15554425 1.0727751
0.21878302 -0.14437903 1.0742779
0.22073288 -0.14144988 1.07385
0.21969485 -0.13946649 1.07875
0.22148301 -0.13614911 1.0756111
0.21921967 -0.12167645 1.0764167
0.2206893 -0.12708884 1.0729376
0.21949874 -0.10797892 1.0706667
0.2212456 -0.10372406 1.0791875
0.22128916 -0.094246313 1.0794001
0.22121449 -0.085448109 1.0790358
0.22119687 -0.074424408 1.0740782
0.22214518 -0.06406837 1.0730979
0.22554852 -0.058034215 1.0731136
0.23277128 -0.054028537 1.0726429
0.22758599 -0.042084463 1.076
0.23171072 -0.047219742 1.0735
0.2263875 -0.034558333 1.0766112
0.22851413 -0.029931325 1.079
0.2305696 -0.028970698 1.0795001
0.22816387 0.06741368 1.0705
0.23852265 0.064966895 1.0780001
0.22572428 -0.601744 1.0866876
0.22473943 -0.59838521 1.0862001
0.22402711 -0.58716887 1.0855833
0.22565675 -0.5748626 1.084
0.22403452 -0.56471092 1.0870501
0.22559266 -0.55549628 1.0870113
0.22611172 -0.54558927 1.0876563
0.22440383 -0.5354296 1.0852749
0.22501186 -0.5243125 1.0862858
0.22568636 -0.51516527 1.0865002
0.22398348 -0.50450259 1.0843573
0.22449636 -0.49560711 1.0878571
0.2240909 -0.48414546 1.084408
0.22602874 -0.47606793 1.0859079
0.22710425 -0.46492749 1.0880001
0.22617939 -0.45514286 1.0818125
0.22659753 -0.44167149 1.0838125
0.22750291 -0.43533629 1.0881428
0.2265489 -0.42434707 1.0846732
0.22598295 -0.41611594 1.0834318
0.22708474 -0.40659016 1.0861429
0.22738878 -0.39320064 1.0841
0.22648355 -0.38559604 1.0852858
0.22466378 -0.37429559 1.0848833
0.2252187 -0.36576682 1.0875193
0.22701161 -0.35715505 1.0873612
0.22815603 -0.34018588 1.0877501
0.22879757 -0.33562812 1.0872917
0.22786331 -0.32427308 1.0822272
0.22608244 -0.31283832 1.0848751
0.22660524 -0.30504277 1.0862
0.22757877 -0.29642075 1.0853889
0.22586021 -0.28459159 1.0846155
0.22542477 -0.27589715 1.0836668
0.22584364 -0.26569095 1.08725
0.22580655 -0.25534454 1.0870714
0.22645751 -0.24602477 1.0849062
0.2265546 -0.23545705 1.0836071
0.22643033 -0.22462177 1.0851252
0.22571503 -0.21585131 1.0862502
0.22603564 -0.20637649 1.081125
0.22146343 -0.19231351 1.08025
0.22151016 -0.18519358 1.0828751
0.21968365 -0.17273943 1.0859166
0.22071353 -0.1752573 1.0855625
0.21935368 -0.1651399 1.0842857
0.22072335 -0.16653344 1.0838001
0.21931757 -0.15483835 1.0841073
0.21920738 -0.13494992 1.0835626
0.22111134 -0.13427325 1.0828251
0.21972579 -0.12497893 1.086125
0.22096352 -0.1279922 1.0825834
0.21973424 -0.11616001 1.0861667
0.22023126 -0.11089405 1.085
0.22106795 -0.10715216 1.0867084
0.22136603 -0.093305811 1.0880001
0.22089407 -0.08502619 1.0879809
0.22080533 -0.064497031 1.0830001
0.2260568 -0.057262123 1.0847501
0.23418042 -0.053272977 1.0875577
0.22734143 -0.041573204 1.0873752
0.23270348 -0.047549009 1.0876501
0.2260558 -0.038168516 1.0847501
0.23636873 -0.028536391 1.0815001
0.22718549 0.068575054 1.083125
0.22641487 -0.6057958 1.09
0.22421645 -0.59450692 1.0936787
0.2252481 -0.58446068 1.0947727
0.22465508 -0.57568908 1.0926112
0.22309701 -0.56404537 1.0945625
0.22374693 -0.55422848 1.0942281
0.22490016 -0.54563636 1.0948502
0.224923 -0.53771085 1.0971251
0.22648633 -0.52600044 1.0975001
0.22458622 -0.51405501 1.0922779
0.22524332 -0.50574833 1.0986875
0.22464027 -0.4942055 1.0978216
0.22362915 -0.48348117 1.0962501
0.22500096 -0.47508961 1.0943055
0.22618866 -0.46504876 1.0934546
0.22592501 -0.45497257 1.0944661
0.22633551 -0.4454639 1.0976771
0.22616737 -0.43499264 1.096764
0.22553875 -0.42460778 1.0953126
0.22779623 -0.41497856 1.09665
0.22816996 -0.40114987 1.0913334
0.22661106 -0.39454043 1.0945313
0.225198 -0.38539714 1.0948571
0.22398764 -0.37571746 1.0925626
0.22437285 -0.36377877 1.0924773
0.22656903 -0.35454798 1.0927858
0.22679175 -0.34472933 1.0921974
0.22788082 -0.33630952 1.0935
0.22780289 -0.32484388 1.093125
0.22670639 -0.31491831 1.0937917
0.22675329 -0.30443558 1.0971946
0.22681373 -0.29486343 1.0965588
0.22514266 -0.28414401 1.0959808
0.22542791 -0.27574059 1.0983088
0.22607358 -0.26548705 1.0955
0.22579649 -0.254224 1.0955999
0.22675863 -0.24538675 1.0943438
0.22752024 -0.23503782 1.0953214
0.22526103 -0.22388698 1.0915625
0.22446905 -0.21336825 1.0928571
0.225197 -0.20536897 1.096143
0.22378691 -0.19590633 1.0976251
0.22161128 -0.18506914 1.0936251
0.21930106 -0.17582035 1.0975
0.22032671 -0.17594482 1.0952084
0.22037545 -0.16554156 1.0966786
0.21993768 -0.15113515 1.0945001
0.22022906 -0.1565295 1.09595
0.21956927 -0.14496575 1.0926667
0.21980707 -0.12660709 1.09385
0.22018887 -0.12163587 1.0957501
0.22063093 -0.11667506 1.0979501
0.22162671 -0.10352999 1.0926001
0.22220509 -0.098185576 1.0940001
0.22089273 -0.07526008 1.0928125
0.22138664 -0.063465066 1.0959108
0.2240852 -0.057890385 1.0966667
0.22819349 -0.042975426 1.095
0.23202194 -0.047374688 1.0938126
0.22784682 -0.033223841 1.0912001
0.23467669 -0.027713869 1.092375
0.22608978 0.068767622 1.092
0.22744076 -0.61178851 1.102125
0.22570994 -0.60516286 1.1050279
0.22553802 -0.59131467 1.1001251
0.22555 -0.58478415 1.1075001
0.22535481 -0.57528687 1.1065418
0.22346839 -0.56681561 1.1046251
0.2250303 -0.55454534 1.1079
0.22545147 -0.54469877 1.1079376
0.22507612 -0.5339824 1.1051842
0.22548741 -0.52504486 1.1041186
0.22484568 -0.5165844 1.1065001
0.22565182 -0.50103754 1.108
0.22405015 -0.49526283 1.1053928
0.22297107 -0.48496842 1.1021667
0.22719093 -0.47411537 1.1081876
0.22619073 -0.46508452 1.10575
0.22474556 -0.45495248 1.1035502
0.22421364 -0.44317868 1.1021667
0.22392529 -0.43498105 1.1028637
0.22401483 -0.4246991 1.1016912
0.2258698 -0.41516814 1.1039698
0.22663903 -0.40576449 1.1044644
0.22579323 -0.39631745 1.1034644
0.2256009 -0.38544002 1.1077501
0.22455716 -0.37470019 1.102625
0.22481789 -0.36462861 1.1063668
0.2256476 -0.35533562 1.1057875
0.22637494 -0.34646618 1.1064
0.2289906 -0.33357483 1.1024001
0.22831985 -0.32518262 1.1043215
0.22731721 -0.31494883 1.1051668
0.22699873 -0.30581149 1.1072501
0.22588554 -0.29508591 1.10475
0.22466676 -0.28447431 1.1063215
0.22475147 -0.27552924 1.1060417
0.22618599 -0.26512817 1.1032857
0.22572078 -0.25691426 1.1050832
0.22670154 -0.24379548 1.1035312
0.22720921 -0.23508093 1.1078531
0.22554848 -0.22580452 1.1038251
0.22421406 -0.21458887 1.104625
0.22308064 -0.20452769 1.1027085
0.22265072 -0.19518863 1.1005834
0.21973501 -0.18199567 1.1034168
0.22124329 -0.18587059 1.1010001
0.21964991 -0.16506068 1.10675
0.22055101 -0.16455145 1.1050001
0.22080766 -0.15501031 1.1062858
0.22058429 -0.14512604 1.1051667
0.22073635 -0.13549349 1.1059285
0.22082545 -0.12580946 1.1063751
0.22137928 -0.11135409 1.1041666
0.2220158 -0.1066778 1.1073334
0.22163156 -0.093186416 1.1014501
0.22229205 -0.058198318 1.1025001
0.22855091 -0.042626172 1.1050833
0.23170678 -0.045747742 1.10825
0.22774601 -0.035014853 1.1047308
0.23025081 -0.030649096 1.1048751
0.23199783 -0.029090498 1.1025001
0.22710124 0.069759466 1.1077501
0.24300015 0.066594079 1.105
0.22791195 -0.61647737 1.11465
0.22605912 -0.60037971 1.11
0.22617149 -0.59447545 1.1130279
0.2255737 -0.58478045 1.1175278
0.22461572 -0.5756458 1.1147751
0.2239064 -0.56647092 1.1142501
0.22568107 -0.55769235 1.1155626
0.22640178 -0.54849452 1.1191251
0.22462764 -0.52499795 1.1133502
0.22508465 -0.51383638 1.1146166
0.22467363 -0.5052166 1.1145263
0.22382295 -0.49622107 1.1157187
0.22477378 -0.48567075 1.1142858
0.22723016 -0.47545382 1.1157501
0.22635485 -0.46574479 1.1133125
0.22574426 -0.45474401 1.1158751
0.22493036 -0.44450992 1.11335
0.22390318 -0.43393919 1.1176591
0.22477299 -0.42705989 1.1185626
0.22474031 -0.41413036 1.1184
0.22510839 -0.40452567 1.115725
0.22637647 -0.39844197 1.119
0.22624159 -0.38382182 1.1183333
0.22507839 -0.37507215 1.1125835
0.22474118 -0.35119152 1.1109167
0.22705449 -0.34423783 1.112125
0.22950074 -0.33500624 1.1121072
0.22874132 -0.32477617 1.1157501
0.2277946 -0.31570154 1.1157501
0.22749323 -0.30549011 1.1170417
0.22616862 -0.29491681 1.1142501
0.22486003 -0.28449124 1.1160001
0.2261885 -0.27487385 1.11725
0.22571468 -0.26445821 1.1140193
0.22626749 -0.25474158 1.1140001
0.2261737 -0.2465789 1.1105626
0.22609162 -0.23486352 1.1138752
0.22501285 -0.22511987 1.115375
0.22460948 -0.21593247 1.1150228
0.22446619 -0.20491096 1.1170357
0.22432505 -0.19496119 1.1163334
0.22190349 -0.18727157 1.1155626
0.22016807 -0.17255615 1.1131667
0.22025315 -0.16513593 1.1174167
0.22093768 -0.15464568 1.1145
0.22159846 -0.14527392 1.1178334
0.22136559 -0.13282746 1.1192085
0.22107883 -0.12531245 1.1152189
0.22114083 -0.11551065 1.1120193
0.22142865 -0.10237848 1.1114545
0.22200581 -0.095749445 1.1139108
0.22639716 -0.057678629 1.1165833
0.23458004 -0.053947996 1.1133502
0.23440716 -0.048090782 1.110375
0.2275625 -0.039808493 1.11
0.23134694 -0.029291689 1.1101251
0.22884384 0.06878341 1.11625
0.22911386 -0.6238609 1.128
0.22679374 -0.61319333 1.1210626
0.22710828 -0.60504615 1.1235626
0.22646408 -0.59576297 1.1244584
0.22529514 -0.58516049 1.1275002
0.22524148 -0.57829928 1.1285
0.22546375 -0.56281388 1.122
0.22598755 -0.55436689 1.1233543
0.22511281 -0.5452733 1.1234168
0.22571974 -0.53507411 1.1243571
0.22482412 -0.52567685 1.124125
0.22440453 -0.51533997 1.1255833
0.22293007 -0.50503832 1.1235938
0.22375166 -0.49402905 1.1210358
0.22675981 -0.48419049 1.124125
0.22769706 -0.47489288 1.1255357
0.22598976 -0.46451488 1.1240001
0.22546715 -0.4555431 1.1229688
0.22456574 -0.44438827 1.1251347
0.22310571 -0.43564501 1.1267291
0.22502036 -0.42485857 1.1253184
0.2253648 -0.41918528 1.1265833
0.22585562 -0.4024837 1.1239501
0.2263443 -0.39497229 1.1263906
0.22634615 -0.38631693 1.1245
0.22499122 -0.37522554 1.123091
0.22512634 -0.36644411 1.1234792
0.22601636 -0.35479978 1.12475
0.22861722 -0.34393418 1.1255667
0.23038143 -0.34003487 1.1237501
0.22976387 -0.33513302 1.1267
0.23059669 -0.33578557 1.1248001
0.22837496 -0.32448864 1.127
0.22715482 -0.31506869 1.1272942
0.2262022 -0.30462983 1.1260791
0.22602125 -0.29618526 1.1247813
0.22517908 -0.28749239 1.1205834
0.22558652 -0.27370161 1.1240001
0.22502518 -0.26705909 1.1230714
0.22688007 -0.2535843 1.12275
0.22701006 -0.24584381 1.1244001
0.22662993 -0.23644896 1.1249688
0.22508585 -0.22427329 1.1262001
0.22451796 -0.21472774 1.1248749
0.22482567 -0.2081569 1.1264168
0.22432815 -0.19237231 1.12775
0.22142014 -0.18638772 1.1285
0.2206099 -0.17208798 1.1224376
