# .PCD v0.7 - Point Cloud Data file format
VERSION 0.7
FIELDS x y z
SIZE 4 4 4
TYPE F F F
COUNT 1 1 1
WIDTH 1040
HEIGHT 1
VIEWPOINT 0 0 0 1 0 0 0
POINTS 1040
DATA ascii
-0.51243401 0.059396148 0.74975002
-0.49723545 0.05925633 0.74407685
-0.40174654 0.05456277 0.74514294
-0.49665546 0.060221918 0.74739999
-0.47321597 0.061851334 0.74875003
-0.46706629 0.06162313 0.74666667
-0.45773673 0.061840855 0.74949998
-0.44300729 0.061739821 0.7474001
-0.43381131 0.061584737 0.74552274
-0.42680874 0.061886739 0.74917859
-0.41091615 0.061354689 0.74887502
-0.40632018 0.060304929 0.74633336
-0.14471222 0.064576879 0.74588096
-0.1347367 0.067794621 0.74721253
-0.12467607 0.067829557 0.74760008
-0.11438354 0.067730904 0.74651247
-0.10496262 0.067845702 0.7477777
-0.074840322 0.067625418 0.74535012
0.25627324 0.072969705 0.74388301
0.27575365 0.07808622 0.74889064
0.28396282 0.076288112 0.74733824
-0.40172839 0.056120899 0.7545678
-0.4923996 0.062294025 0.75443435
-0.48481306 0.062364321 0.75495833
-0.47546712 0.062387336 0.75316668
-0.46646014 0.062449839 0.75543177
-0.45396146 0.062529318 0.75384372
-0.44892362 0.062967427 0.7539584
-0.42181763 0.062123273 0.75204164
-0.41391695 0.062443588 0.75479549
0.2650699 0.078429125 0.75243425
0.27096555 0.078314863 0.75108331
0.28795478 0.076817304 0.75135005
-0.56495827 0.058712635 0.77766675
-0.54860348 0.059114501 0.77950007
-0.53583413 0.058834076 0.77643186
-0.40072015 0.056444708 0.77558345
-0.56396598 0.065383449 0.77647376
-0.39538431 0.066768788 0.7768473
-0.3849332 0.066729009 0.77765459
-0.3746078 0.067277364 0.77571219
-0.36505243 0.067190029 0.7761035
-0.35489503 0.066805296 0.77655876
-0.34555805 0.066996887 0.77730405
-0.33474085 0.066889025 0.77609944
-0.32494888 0.06690421 0.77752244
-0.31514671 0.067236647 0.77703184
-0.30482963 0.06718386 0.77552664
-0.29541913 0.066744983 0.77676117
-0.28499761 0.067291401 0.77667153
-0.24492985 0.067278385 0.77525002
-0.23538744 0.067356855 0.77720982
-0.21468025 0.068091325 0.7763778
-0.20463468 0.067810036 0.77583694
-0.1949953 0.067798108 0.7756629
-0.18515599 0.067809798 0.7750327
-0.17488071 0.067414246 0.77524996
0.10736416 0.065018699 0.77439505
0.14247639 0.065257683 0.7741732
0.2502014 0.067834236 0.77662504
0.30553067 0.067390285 0.7775625
-0.085246153 0.076688595 0.7757749
0.12486756 0.074948564 0.77456403
0.14481235 0.075372867 0.77463901
0.15473233 0.075938784 0.7766301
0.16504136 0.077310257 0.77624387
0.17509528 0.077495851 0.77817541
0.18500486 0.07738626 0.77710694
0.19458175 0.077978693 0.7777046
0.20487243 0.077471763 0.77744448
0.2356385 0.078592137 0.77736998
0.24579656 0.077727079 0.77670711
0.25234598 0.077087313 0.77399999
0.30523399 0.077904716 0.77632147
0.31389356 0.078270055 0.77811956
0.32528591 0.078384727 0.77806032
0.33514482 0.078459494 0.77733344
0.34448147 0.078261711 0.77575833
0.35540089 0.078543745 0.77815396
0.36487001 0.079317003 0.77890003
0.37458873 0.079541355 0.77800006
0.3967064 0.079355128 0.77617866
0.40279549 0.079311311 0.77575004
0.23532242 0.084886901 0.77476096
0.24491255 0.084989004 0.77485836
0.25467953 0.085159011 0.77428907
0.3048633 0.084920421 0.77462775
0.31514823 0.08532545 0.7762168
0.32492134 0.085008599 0.77624208
0.3348321 0.085187703 0.77564174
0.34493455 0.085018098 0.7751227
0.35518247 0.085039027 0.77654213
0.36514339 0.085413948 0.77684212
0.3749063 0.085017234 0.77602732
0.38476697 0.085415713 0.77606535
0.39479697 0.084694207 0.77474779
0.40522853 0.085549407 0.77619666
0.41472888 0.085734151 0.77677584
0.42522866 0.085410506 0.77655059
0.43496835 0.085890643 0.77602965
0.44540921 0.085837848 0.77684498
0.45450518 0.086409457 0.77570128
0.46492946 0.086673573 0.77736008
0.47418049 0.087053277 0.77902377
0.48639992 0.088093802 0.77855289
0.49251959 0.087464154 0.77894735
0.50724369 0.087535717 0.77846617
0.5105108 0.085354701 0.77818751
-0.5471347 0.059360083 0.78041673
-0.40022987 0.056947187 0.78113896
-0.39812222 0.054848015 0.78533214
-0.3955746 0.061952177 0.78275007
-0.3848879 0.063763849 0.78585416
-0.37247032 0.064534567 0.78768754
-0.36551905 0.064249523 0.78420836
-0.34347302 0.064199686 0.78360003
-0.33338943 0.064395271 0.78925002
-0.32323068 0.063548349 0.782125
-0.31638795 0.064428501 0.78639299
-0.29411602 0.064427286 0.78457147
-0.28907382 0.06390474 0.78000003
-0.24534722 0.064611793 0.78433341
-0.21110082 0.065023273 0.78075004
-0.20964833 0.065064922 0.78125006
-0.18821496 0.065522969 0.78675002
-0.044202618 0.063887849 0.78628123
-0.034944009 0.069194451 0.7815938
-0.027465275 0.067876197 0.78232151
0.25083384 0.066987924 0.78518754
0.30865449 0.068014458 0.78214294
0.31193507 0.068184577 0.78342313
-0.035622481 0.070421278 0.78200006
0.1576753 0.072738938 0.78089291
0.17100132 0.075521536 0.78000003
0.18566248 0.074062921 0.78294641
0.20066117 0.076015592 0.78237504
0.23490977 0.074064061 0.78550011
0.24610823 0.074551456 0.78648752
0.2504805 0.071819246 0.78187507
0.30818594 0.073237486 0.78319442
0.31279898 0.074101672 0.7845704
0.33370307 0.078255743 0.78625005
0.39447588 0.079860844 0.78112507
0.3875612 0.080623366 0.78858334
0.39710164 0.080717087 0.78950006
0.41675472 0.080827788 0.78025001
0.42304692 0.081428625 0.78605002
0.43552884 0.081397101 0.78233337
0.44596609 0.082598418 0.78705561
0.45589894 0.082087539 0.78525001
0.46332735 0.082707703 0.78305358
0.47640824 0.084433399 0.78104168
0.48498777 0.085013375 0.78211361
0.49604449 0.085397966 0.78099316
0.50399029 0.08564125 0.78115249
0.51174551 0.083007053 0.78087503
-0.55006582 0.059545085 0.79225004
-0.39707345 0.056042682 0.79587501
-0.5506171 0.060560353 0.79150003
-0.39434716 0.061918315 0.7964319
-0.38117328 0.064274989 0.792
-0.37593597 0.064300492 0.79494232
-0.3654649 0.064110175 0.79565626
-0.358091 0.064045213 0.79485005
-0.34176564 0.063892111 0.79295003
-0.33859307 0.064145923 0.79610002
-0.30556732 0.064290792 0.79125005
-0.21797815 0.066147596 0.79425001
-0.042941056 0.067932867 0.79000002
-0.035166122 0.069214761 0.79862499
0.00039300529 0.067954369 0.79025006
0.01760708 0.069373704 0.79425007
0.029365571 0.068126343 0.79225004
0.034351017 0.066376194 0.79386765
0.23908524 0.066352852 0.79029173
-0.0073140734 0.07053104 0.79035008
0.017040556 0.07076776 0.79300004
0.24371876 0.07153783 0.79060012
0.33304363 0.077082798 0.79612505
0.39581072 0.080780983 0.79012501
0.41790971 0.082303979 0.79450005
0.43813336 0.081087701 0.79312503
0.44265926 0.082303979 0.79450005
0.4760035 0.083810911 0.79421431
0.48470053 0.084351905 0.79657507
0.49505228 0.083778486 0.79830003
0.5031442 0.083847582 0.79690003
0.51426995 0.084375672 0.79375005
0.52241802 0.083832271 0.79881257
-0.39736861 0.05443912 0.80415547
-0.39303079 0.062300019 0.80554175
-0.34990606 0.064520605 0.80075002
-0.33026484 0.06492348 0.80575001
-0.32631475 0.06484291 0.80475003
-0.22841853 0.067001246 0.80450004
-0.043220598 0.066141866 0.80379999
-0.035976749 0.06930542 0.8003611
0.017765764 0.06892176 0.80150002
0.02209142 0.068864435 0.8008334
0.42708746 0.083175264 0.80641669
0.44973931 0.083417594 0.80525005
0.45959938 0.083326951 0.80437505
0.46447235 0.082680091 0.80337501
0.47308198 0.083016172 0.80137503
0.48828185 0.084761478 0.80766672
0.49052012 0.084770225 0.80775005
0.51698029 0.085073426 0.80497724
0.52127874 0.084481627 0.80500007
-0.39725527 0.055180807 0.81426573
-0.3933984 0.062528536 0.81595659
-0.33757475 0.064604945 0.81550002
-0.041195989 0.069328308 0.81912506
-0.038268741 0.069049716 0.81583339
0.17117973 0.074839249 0.81875002
0.18010601 0.074862108 0.81900007
0.1992186 0.074887067 0.81325006
0.45488894 0.084168643 0.81250006
0.47335863 0.083219551 0.81400007
0.48526025 0.084282592 0.81360006
0.49078226 0.084570058 0.81637502
0.5209586 0.085006356 0.81000006
-0.40021634 0.050913583 0.82625002
-0.39795947 0.055712294 0.82659471
-0.39420471 0.062260307 0.82691258
-0.38899457 0.064497091 0.82293761
-0.37435347 0.064957693 0.82845002
-0.35420868 0.064821713 0.82225007
-0.043082714 0.065463908 0.82339287
0.1824322 0.075364843 0.82450002
0.1991827 0.074248523 0.82450002
-0.3970449 0.054549105 0.83369738
-0.39242089 0.062028315 0.83361119
-0.38698938 0.064921655 0.83616668
-0.36206773 0.064921901 0.83375007
-0.35569665 0.065818794 0.83558339
-0.34607613 0.065194912 0.83241671
-0.33339894 0.065852679 0.83125001
-0.39710361 0.055047877 0.84420633
-0.39323714 0.061811265 0.84313643
-0.38638449 0.064158536 0.84561843
-0.37695792 0.065882258 0.8460834
-0.3660492 0.065010697 0.84466672
-0.043651398 0.067131028 0.84740001
0.4895263 0.085121125 0.84375006
0.50953251 0.087211661 0.84187508
0.51162261 0.087276399 0.84250003
0.53243917 0.086365752 0.84475005
-0.39572704 0.055242978 0.8530398
-0.39384267 0.061729036 0.8531428
-0.38292861 0.065564483 0.8547501
-0.37706503 0.066572681 0.85495007
-0.36438313 0.065795392 0.85237503
-0.34294841 0.067397498 0.85075003
-0.044619434 0.061782412 0.85275006
0.49298689 0.086735271 0.85975003
0.5186047 0.08789932 0.85975003
0.52250171 0.087771527 0.85850006
0.54402924 0.087030292 0.85125005
-0.39645642 0.054983884 0.86590976
-0.3941018 0.062028281 0.8646912
-0.37425083 0.065560766 0.86450005
-0.044405583 0.065495364 0.86358339
0.46522471 0.086987473 0.86225003
0.54751706 0.088148527 0.86218756
0.56580681 0.086514235 0.86628127
-0.39667961 0.053516049 0.87491673
-0.39616627 0.063095286 0.87785721
-0.38428348 0.066348881 0.87825006
-0.37645578 0.066235714 0.87600011
0.56458956 0.087408714 0.87482154
0.57544988 0.085574389 0.87921882
-0.39734569 0.055940505 0.88484246
-0.39430207 0.063186981 0.88137001
-0.38890108 0.06676919 0.88043749
-0.36456373 0.069029398 0.88650006
-0.045222927 0.064290568 0.88725001
-0.044008836 0.070269272 0.88700002
0.57748437 0.0789565 0.88791662
0.58196914 0.078677192 0.88871878
0.47183347 0.089005172 0.88225007
0.48254675 0.089219548 0.88437504
0.51349425 0.089080825 0.88300002
0.5223158 0.089055613 0.88275003
0.56534988 0.087673634 0.88087505
0.57459384 0.083295994 0.88302034
0.58091056 0.080940649 0.88550001
-0.39839572 0.055524856 0.89317501
-0.39625186 0.063644484 0.89597631
-0.38196424 0.067154981 0.89350003
-0.045215383 0.062582925 0.89306259
0.57787675 0.076094933 0.89532137
0.55499548 0.089077599 0.89497924
0.56566417 0.088685296 0.89409381
0.57385689 0.08463534 0.89540565
-0.40085915 0.053747181 0.90197927
-0.39712334 0.055175867 0.90498567
-0.39587367 0.063115418 0.90494996
-0.044852298 0.061824352 0.90400004
-0.37207311 0.070684083 0.90775007
0.57630479 0.076045521 0.90590978
0.55126721 0.089751497 0.90175003
0.56853384 0.087561049 0.90182507
0.57289565 0.08305259 0.90430641
0.55247629 0.090348683 0.90775007
-0.3955712 0.055881012 0.91090012
-0.39548415 0.06428048 0.91642654
-0.045307111 0.066772975 0.9131667
-0.044363905 0.072824158 0.91925007
0.57536155 0.076766618 0.91640007
0.57479942 0.084299259 0.91698402
0.52237403 0.090672158 0.91100007
0.54732269 0.091543049 0.91975003
0.55227482 0.090821452 0.91250002
0.57410336 0.090199582 0.91875005
-0.39690059 0.055237092 0.92447019
-0.39366081 0.064276308 0.92406809
-0.38683447 0.069200054 0.92441666
-0.044802278 0.06223261 0.92833334
-0.37693962 0.07142859 0.92266673
0.57706541 0.077801228 0.92510003
0.56998187 0.089875467 0.92825001
0.5740664 0.086067632 0.9257217
0.53820944 0.092115343 0.92550004
0.54946303 0.091692343 0.92125005
0.55276918 0.09172345 0.92156255
0.56926078 0.090588748 0.92912507
-0.39435005 0.054575559 0.93276864
-0.39301223 0.063799337 0.93285716
-0.3888551 0.068657584 0.93025005
-0.044940021 0.066836178 0.93118757
-0.045057654 0.071435675 0.93362504
0.57909501 0.078410819 0.93240005
0.58065301 0.076296523 0.93125004
0.57500309 0.08526545 0.93525887
0.53215218 0.092588119 0.93025005
0.54787314 0.093334593 0.93775004
0.55082816 0.093297273 0.93737507
0.5691486 0.091402248 0.93100005
0.57083362 0.090710558 0.93687499
-0.39723197 0.055672623 0.94722497
-0.39562041 0.064886719 0.94759369
-0.39342743 0.070032209 0.94887507
-0.38621417 0.072094753 0.94225007
0.57952017 0.078579821 0.94866675
0.5811255 0.078976832 0.94369996
0.57524067 0.084819779 0.94488209
0.58056927 0.081035733 0.94237506
0.56929487 0.091482893 0.94485009
0.57016397 0.091109954 0.94100004
-0.39597046 0.055155016 0.95268059
-0.39337015 0.064798102 0.95122492
-0.044918913 0.065492593 0.95762503
-0.39181441 0.070882373 0.95340002
0.57771349 0.078268811 0.95453757
0.58187664 0.076778106 0.95287502
0.57371956 0.084842809 0.95453984
0.56975108 0.092386797 0.95418751
0.57060283 0.090827525 0.95410001
-0.3964946 0.055995204 0.96754992
-0.39621133 0.064553343 0.9666484
-0.39583209 0.071510613 0.96891671
0.57691813 0.078382298 0.96353579
0.57484329 0.081964038 0.96227503
0.57707655 0.092580616 0.96975005
-0.39544311 0.054480001 0.97619802
-0.39478889 0.066801123 0.97398221
-0.39340553 0.071727224 0.97312504
0.5815382 0.078742124 0.97725004
0.57729512 0.086196691 0.97679168
0.58065075 0.082630038 0.97631252
0.5669415 0.094344832 0.97744453
0.57393348 0.092129186 0.97304839
-0.39437684 0.056051705 0.98355281
-0.3951726 0.064765625 0.98490977
-0.39461994 0.070595235 0.98666668
0.57933784 0.079255797 0.98362505
0.58030105 0.079024144 0.98075002
0.57698417 0.084755875 0.98368758
0.56838852 0.094299912 0.98312497
0.57159019 0.091892123 0.98490018
-0.39548698 0.065291375 0.99633342
-0.045248505 0.063898645 0.99333334
0.57583874 0.088131338 0.99233341
0.58251095 0.082995839 0.99652779
0.56886393 0.094776876 0.99275005
0.57171047 0.092098847 0.99444455
-0.39907297 0.054702364 1.0060884
-0.39755094 0.064101301 1.0043437
-0.39877585 0.071410775 1.0044376
0.21907878 0.075243339 1.0051666
0.57880187 0.087903939 1.0046668
0.58250868 0.083735317 1.004202
0.56977111 0.096895099 1.0007501
0.57533067 0.092735432 1.0063864
-0.39715609 0.05573047 1.0148692
-0.40019274 0.06815321 1.0166668
-0.39788988 0.064045385 1.0161965
-0.40091395 0.07160005 1.0167501
-0.39914268 0.070964217 1.0175
0.21944767 0.074500538 1.015625
0.57902569 0.087347813 1.0145961
0.58148605 0.083602659 1.0137376
0.57539219 0.09520749 1.0141765
-0.3958562 0.06529697 1.0250576
0.21959698 0.07417573 1.0238001
0.58289325 0.089006908 1.029
0.57581949 0.095938638 1.0274358
0.58163768 0.093107961 1.0275002
-0.75363851 0.055667702 1.0362667
-0.39651486 0.056871984 1.0368409
-0.75221932 0.063278198 1.0344999
-0.39605936 0.065138713 1.037172
-0.40382388 0.072045244 1.033
0.21961924 0.077238172 1.0370001
0.22098234 0.074983522 1.0349287
0.57928663 0.088716075 1.0317001
0.58283627 0.085366979 1.0327789
0.57661909 0.094138056 1.0345578
0.58015114 0.090729527 1.0387501
-0.75424892 0.054380048 1.0448017
-0.39734787 0.056245901 1.0438215
-0.75411212 0.064187922 1.0457767
-0.3958827 0.065135412 1.0437292
-0.39672372 0.070220023 1.0475
0.21937139 0.076019712 1.04925
0.22107095 0.07413125 1.0462954
0.2212916 0.080205165 1.04825
0.57706815 0.087778509 1.0454894
0.58173347 0.086500593 1.0425577
0.57501471 0.095014364 1.0445364
-0.75474989 0.055129215 1.0552804
-0.39798361 0.057411324 1.0559644
-0.75483197 0.061969582 1.0559376
-0.39622119 0.065276243 1.0573015
-0.39591092 0.070836768 1.0567
0.219328 0.073820114 1.0533125
0.2205863 0.07526008 1.0533751
0.22109625 0.080912918 1.0575
0.58600187 0.085057214 1.055625
0.57521874 0.096787162 1.0566429
-0.75214785 0.055099793 1.0620567
-0.39720729 0.05568568 1.0620716
-0.75403309 0.06351579 1.0639604
-0.39563119 0.065022931 1.0668751
-0.39627206 0.070230365 1.0692501
0.21965046 0.076394171 1.064375
0.22084413 0.071425661 1.0655
0.57705832 0.089084998 1.0631876
0.58005458 0.088425823 1.0617501
0.57430768 0.094931282 1.0623782
-0.75322431 0.054725677 1.0758531
-0.39857927 0.057463646 1.0741668
-0.75411993 0.063131124 1.0754687
-0.39778766 0.064088702 1.0753126
-0.39732111 0.07246124 1.0701251
0.22052626 0.075670458 1.0745001
0.22220424 0.080927953 1.07675
0.57818222 0.089810401 1.0783751
0.57536584 0.095939934 1.0771121
-0.75037384 0.047573622 1.0807501
-0.75050986 0.055834208 1.0815963
-0.74832523 0.055263132 1.0854394
-0.7514509 0.064154491 1.0820695
-0.74765831 0.06258408 1.085987
-0.39929181 0.064287648 1.08135
-0.046511855 0.066896796 1.0856251
-0.40099728 0.073997729 1.082
-0.39920875 0.071742475 1.081125
-0.046613608 0.071461901 1.0880001
0.22143675 0.074849747 1.0837085
0.57340378 0.094021916 1.0838826
-0.74941468 0.049456365 1.09
-0.75227457 0.054856338 1.0981539
-0.74994099 0.057213366 1.0972501
-0.40248746 0.05632937 1.0934039
-0.39960903 0.059278917 1.09425
-0.40101328 0.065071329 1.0920209
-0.39838168 0.065124586 1.0929167
-0.047063462 0.066200659 1.0985
-0.40145198 0.072800234 1.0904
-0.39912686 0.071203806 1.0915834
-0.046870667 0.070374779 1.0940001
0.21993768 0.079298265 1.0945001
0.22217679 0.074448317 1.0939792
0.22336243 0.081418425 1.0931251
0.57474184 0.096855015 1.0961876
-0.75180465 0.051438667 1.1008501
-0.40395853 0.056338202 1.1065456
-0.40184355 0.061877046 1.1075625
-0.40131056 0.072447129 1.103
0.22247104 0.074885018 1.105875
0.22265047 0.081776515 1.108
0.57706881 0.095189437 1.1030834
-0.4025507 0.05624086 1.1110626
-0.39821014 0.058502685 1.114091
-0.40154791 0.066124037 1.1107955
-0.39731276 0.064554676 1.1141875
-0.40170789 0.071305759 1.1123751
-0.39765516 0.070856169 1.1148928
0.22312902 0.074100234 1.1147709
0.57733226 0.097414397 1.1161975
0.58147526 0.093951441 1.1160001
-0.39785177 0.058542997 1.12275
-0.39659587 0.065810777 1.1235
-0.39894825 0.07179831 1.128
0.22452495 0.074905947 1.1287501
0.21927336 0.080287017 1.12925
0.22190805 0.08177194 1.12865
0.57792068 0.097609267 1.12625
0.58372384 0.094759509 1.128625
-0.3990669 0.058181621 1.1305001
-0.39783713 0.065120399 1.1313572
-0.40021414 0.072931819 1.1337501
-0.3988544 0.071428277 1.13425
0.2196306 0.077623703 1.1350626
0.22321776 0.074372508 1.1337501
0.57732666 0.098708831 1.1379446
0.58253604 0.096501425 1.1356251
-0.40328601 0.056870505 1.1462667
-0.39928567 0.059120692 1.1487501
-0.40067515 0.065061815 1.1438334
-0.3986395 0.064992689 1.1466324
-0.40101746 0.072093688 1.1448126
-0.39914846 0.070624307 1.1461251
-0.047499709 0.071321398 1.144875
0.21991315 0.074910201 1.1405001
0.22325677 0.07224606 1.1444724
0.57960474 0.098825119 1.14925
0.58881587 0.095692277 1.149
0.5932281 0.093849845 1.1455001
-0.40110555 0.060407091 1.1585001
-0.39865819 0.067730054 1.15505
-0.40235651 0.073325045 1.1560835
-0.39885092 0.071124971 1.1542501
0.22073852 0.076064467 1.1501666
0.22037886 0.080274999 1.151
0.57882905 0.099226415 1.1539167
0.5830763 0.097459547 1.1515001
0.59529227 0.094423346 1.1525
-0.40465575 0.057375319 1.16695
-0.40083027 0.063916706 1.1653056
-0.39831424 0.06563101 1.1677321
-0.40089551 0.072236151 1.1658751
-0.39828509 0.071778677 1.1680627
0.2218391 0.07611233 1.1648126
0.21943177 0.081077054 1.1625
0.221674 0.081819773 1.161875
0.58301884 0.09863741 1.1654167
0.59420151 0.096951932 1.164125
0.58125579 0.10031921 1.166625
-0.40488124 0.057809461 1.1758502
-0.40164548 0.061449941 1.1785001
-0.39954013 0.064558901 1.177
-0.39866048 0.072982147 1.1779375
0.60360283 0.096246272 1.1747501
-0.40330848 0.057814192 1.18575
-0.40117589 0.061344132 1.1841875
-0.39838514 0.065656699 1.1848027
-0.39737782 0.072511643 1.1819501
-0.04746585 0.072875448 1.1826668
0.58948547 0.10027373 1.1847501
-0.39900741 0.058644667 1.1945
-0.39719301 0.064426348 1.1942333
-0.40169626 0.076639451 1.1976876
-0.39887735 0.072921544 1.1965313
0.59545559 0.099398367 1.1935
0.61013162 0.097802922 1.19375
0.59190977 0.10109894 1.1945001
-0.40049508 0.069573544 1.20875
-0.40447661 0.074639201 1.2048125
0.6138885 0.09892945 1.2075001
0.59434026 0.1004394 1.206
-0.40097532 0.063907586 1.2151667
-0.39953032 0.065727733 1.2132813
-0.40078163 0.074978068 1.2149465
0.62197161 0.097536296 1.2105
0.59027678 0.10100158 1.2127501
-0.40190616 0.064773239 1.2263751
-0.39940563 0.068878397 1.2255001
-0.39923286 0.073287897 1.223591
-0.047379706 0.071975976 1.22175
-0.40740809 0.059608031 1.23975
-0.40380579 0.066280939 1.2390001
-0.047806289 0.069285877 1.2327501
-0.40160635 0.07639312 1.2359285
-0.39990991 0.075247638 1.23475
-0.047796596 0.070940554 1.2325001
0.61828101 0.099852838 1.2392501
0.62416655 0.099721909 1.2376251
0.60572338 0.10153582 1.2393125
0.61013484 0.10157166 1.23975
-0.40495089 0.065445043 1.2442499
-0.40169731 0.07652466 1.2487501
-0.39876592 0.077839985 1.2495
0.62213951 0.099933416 1.2402501
0.59493303 0.10128884 1.2466002
0.60462517 0.10133685 1.2486786
0.61451584 0.10084441 1.2480832
0.6266765 0.10012142 1.2425834
0.63063329 0.10021543 1.2437501
-0.41014707 0.060257122 1.25325
-0.40430811 0.064066656 1.2545691
-0.3990849 0.067181207 1.2558334
-0.40216038 0.071765028 1.2510358
-0.39772749 0.073724888 1.2532345
-0.047072299 0.073245361 1.25775
0.58526939 0.10182484 1.2539999
0.59154582 0.10172244 1.2519375
-0.40128917 0.061451264 1.2638501
-0.39893872 0.066506676 1.265625
-0.39719787 0.072405472 1.2639
0.58775103 0.098842852 1.2693751
0.60532075 0.098623857 1.2665626
0.63513827 0.098726049 1.267875
0.58442336 0.10129037 1.26775
0.60390627 0.10024659 1.2654002
0.63536173 0.10043278 1.26775
-0.40038434 0.061098535 1.27075
-0.39807379 0.064705268 1.2761095
-0.40062332 0.078519374 1.27425
-0.39850023 0.073839061 1.2768501
0.64295828 0.088479631 1.2792857
0.57851875 0.099621534 1.2793751
0.58444709 0.098875955 1.2787001
0.59516317 0.099074513 1.2723501
0.60630989 0.098191701 1.2776875
0.61442119 0.098062664 1.2788126
0.62603623 0.099392071 1.2796072
0.63640589 0.096410789 1.2770313
0.64479476 0.095013298 1.2774519
0.65241843 0.098417901 1.2787501
0.58298975 0.10161356 1.2764286
0.59509271 0.1007853 1.2722
0.60250264 0.10101703 1.275125
0.61162251 0.10067043 1.27075
0.63202697 0.10063083 1.2702501
0.64075512 0.10065063 1.2705001
-0.40074155 0.060207419 1.2885001
-0.39588287 0.068542317 1.28125
-0.39665255 0.074856468 1.2824334
0.57579553 0.085659638 1.2875781
0.58492523 0.085325651 1.2858405
0.59490782 0.085259154 1.2848334
0.60488415 0.085193843 1.2838473
0.61473453 0.085232936 1.2844416
0.62505823 0.085335925 1.286
0.63514835 0.08517132 1.283518
0.65498865 0.084984466 1.2844287
0.66104293 0.085375555 1.2865416
0.57577586 0.095229857 1.2850833
0.58513302 0.094073273 1.2824793
0.59474415 0.094661459 1.2826018
0.6044479 0.094215378 1.2822241
0.61575484 0.093796626 1.2820833
0.62517172 0.094522528 1.2823536
0.63375974 0.093519501 1.2814863
0.64926708 0.091040537 1.2805001
0.65551221 0.094715491 1.2822143
0.66037923 0.091378249 1.2852501
-0.40049312 0.062183455 1.2933334
-0.3982437 0.065306783 1.295341
-0.048316706 0.069063902 1.291
-0.39570972 0.074384347 1.2923334
-0.048326064 0.070825562 1.2912501
0.56933069 0.084112823 1.2939376
0.57133996 0.084819496 1.29135
0.57292885 0.095644861 1.2973751
0.66384745 0.093607448 1.2920001
-0.40025494 0.061200362 1.3097501
-0.39813039 0.065802053 1.30425
-0.39735532 0.075174108 1.3060501
0.5683133 0.083589561 1.3078847
0.57106662 0.085584857 1.30525
0.56975377 0.092180833 1.309
0.57130361 0.094855361 1.3049266
-0.39759925 0.064768732 1.3131875
-0.39684173 0.074272983 1.3128637
-0.047253538 0.073627658 1.3100001
0.56680429 0.086949699 1.3115001
0.56778419 0.095279045 1.3136177
0.5703522 0.09760008 1.310375
-0.39783484 0.064288832 1.3246666
-0.39715177 0.075003691 1.3257729
0.5688948 0.099473551 1.3235
-0.39809242 0.065170035 1.3339287
-0.39798516 0.07519576 1.3379002
-0.048110232 0.072253786 1.33375
-0.39748815 0.064433768 1.3427857
-0.39912689 0.071194641 1.3478751
-0.048479967 0.070079528 1.3440001
-0.39670077 0.065006003 1.3520501
-0.40012628 0.078690521 1.3512501
-0.39781472 0.075041249 1.3513929
-0.39581212 0.064748168 1.367286
-0.39700329 0.074395664 1.3668907
-0.39856383 0.080584519 1.3678751
-0.39311972 0.069656514 1.3715
-0.3951396 0.076450713 1.3749444
-0.39627323 0.081063181 1.376
-0.39535594 0.064755395 1.3858501
-0.39494705 0.074996881 1.3844167
-0.39728355 0.069171399 1.39925
-0.39690027 0.074781656 1.3979
-0.39774495 0.064508975 1.4008751
-0.40047473 0.06430462 1.41725
-0.399627 0.067996986 1.41425
-0.3989771 0.075534843 1.4119501
-0.39955637 0.081387378 1.414
0.91407341 0.10648217 1.4167501
-0.40125179 0.062506802 1.4200001
-0.40027767 0.073253654 1.4233751
-0.39982069 0.078945845 1.4217501
0.91790515 0.10457487 1.4234375
0.92231226 0.10617499 1.42295
-0.40249223 0.067847252 1.4312501
-0.40140688 0.075652897 1.4369063
-0.39854759 0.077900857 1.438
-0.40098029 0.080723457 1.4362501
-0.39740056 0.08078669 1.4373751
0.92844027 0.10339165 1.4337502
0.9327901 0.10560092 1.4340938
-0.40546763 0.066557132 1.4453126
-0.40161648 0.073059775 1.4462502
-0.39802226 0.077746063 1.4460001
-0.39616176 0.081130937 1.4435
0.93143761 0.099148065 1.4497501
0.92470568 0.10400931 1.4423125
0.92043966 0.11031319 1.44175
-0.40670261 0.066914022 1.4574502
-0.40177155 0.07250461 1.45675
-0.39799216 0.07737568 1.4555626
0.92979461 0.1011458 1.45025
0.93302858 0.10664792 1.458375
0.94647187 0.1034293 1.4547501
0.91413742 0.11169043 1.4597501
-0.40385428 0.066910982 1.46225
-0.39960024 0.06837292 1.46325
-0.40166977 0.070913151 1.4611667
-0.39859015 0.073616326 1.4640937
-0.39843363 0.081416979 1.4662501
0.918468 0.10603267 1.4635
0.92531377 0.10411223 1.4643679
0.93337071 0.10412408 1.4645314
0.91679895 0.11003346 1.4640001
-0.40360594 0.065730914 1.4706252
-0.39999613 0.068781778 1.4720001
-0.39920226 0.075985603 1.4764376
-0.39908397 0.081958368 1.4760001
0.92576343 0.10502901 1.4772501
-0.40170985 0.068245783 1.4820001
-0.40028694 0.073433727 1.4854168
-0.39977515 0.078489393 1.4860001
-0.39933798 0.082423329 1.484375
0.92856336 0.10967501 1.4860001
0.92396927 0.11186233 1.4883333
-0.40537035 0.068025187 1.4992501
-0.40344065 0.071087882 1.499625
-0.39977008 0.07888639 1.4935
-0.39987046 0.082951009 1.493875
0.92743027 0.10741424 1.4985716
0.93317288 0.1056032 1.4975537
0.91573822 0.11233521 1.4946251
0.92567348 0.11111045 1.4976072
0.93208396 0.11146271 1.4965001
-0.4012104 0.076256156 1.5014167
-0.40151954 0.083610222 1.5057501
-0.40690437 0.068626374 1.5125
-0.40344134 0.074815348 1.5133501
0.92794949 0.10801566 1.5160556
0.93378484 0.10513949 1.512841
0.94118094 0.10140844 1.51275
0.92870647 0.11175078 1.5141251
-0.4083356 0.069216222 1.5255001
-0.40476465 0.07412295 1.5245001
-0.40274605 0.081314594 1.5200001
0.92576742 0.10586908 1.5273552
0.9237349 0.11057923 1.52625
-0.41006455 0.06986279 1.5397501
-0.40556416 0.07813821 1.5385001
-0.40556413 0.083346732 1.5385001
0.921507 0.10782226 1.5311251
0.93514001 0.10473038 1.5313752
0.94162911 0.10487571 1.5335001
-0.40739855 0.069942191 1.5415001
-0.40402761 0.074706048 1.5421833
-0.40319073 0.082772806 1.5423751
0.91848201 0.10631403 1.5484002
0.92456782 0.10621541 1.5447502
0.94199413 0.10375471 1.5477501
0.91699898 0.11364999 1.5483751
0.92263746 0.11376274 1.5454285
-0.40357339 0.074891962 1.5576252
-0.40304384 0.083217382 1.5555834
0.9185077 0.10759437 1.5670501
0.92266059 0.10574373 1.5652885
0.95293498 0.10472672 1.56225
0.9156872 0.11420537 1.5656593
0.92223865 0.11199343 1.5633
-0.40978503 0.069318727 1.5747501
-0.40603179 0.073986411 1.5742501
-0.40523034 0.083227448 1.5756876
0.91831076 0.10868725 1.5736251
0.92070472 0.10539708 1.5722501
0.91463923 0.11612657 1.5734167
0.92440051 0.10672688 1.5840626
0.92193991 0.11392108 1.5872084
-0.41117159 0.070100054 1.5925001
-0.40759262 0.075250834 1.592
-0.4071559 0.083101496 1.5936667
0.92514515 0.10765765 1.5931001
0.91789603 0.11620817 1.5927813
0.92154658 0.11233149 1.5921001
-0.41139445 0.071481928 1.6074167
-0.40636912 0.075400703 1.6070179
-0.40727949 0.082265735 1.6055001
0.92611206 0.10980833 1.605625
0.92306727 0.11461709 1.6060002
-0.41253126 0.069074526 1.6190001
-0.40468517 0.07671281 1.6183125
-0.40738758 0.084034979 1.6116668
0.92682582 0.10676268 1.6180558
0.9307906 0.10774469 1.6181668
0.92576545 0.11445528 1.6180668
-0.76859021 0.061468806 1.6207501
-0.40628853 0.074829027 1.6247501
-0.40729979 0.083597891 1.6243751
0.92436481 0.10718793 1.6235627
0.93618864 0.10673308 1.6250001
0.9225862 0.1152109 1.6232501
-0.40613604 0.073957682 1.6300001
-0.40678 0.082918033 1.6325835
0.91836321 0.10684253 1.6393437
0.92462605 0.10601158 1.6376625
0.91928065 0.1137549 1.6390001
0.92376143 0.11524525 1.6375668
-0.78049171 0.057881232 1.6435001
-0.77814734 0.061209716 1.6432501
-0.40685615 0.075639516 1.6425626
-0.40795541 0.083611809 1.6462501
0.91831577 0.098851532 1.6402501
0.91659689 0.10335293 1.6411501
0.91972452 0.11262085 1.6467501
0.92055798 0.11402407 1.6455835
-0.42254868 0.068324938 1.6539167
-0.41815293 0.068338707 1.65425
-0.40627339 0.076111786 1.6555555
-0.40677822 0.083419926 1.6535625
0.92431933 0.10672007 1.659
-0.78655273 0.059621997 1.6610001
-0.78442115 0.061880201 1.6612501
-0.77191013 0.066658355 1.6682501
-0.43105242 0.068968706 1.6695001
-0.40398997 0.078714222 1.6605
-0.40654477 0.084397905 1.6617502
0.92518544 0.10849488 1.6632501
0.92715836 0.11371385 1.6627501
-0.42024943 0.069051325 1.6715001
-0.40513659 0.075837217 1.6714168
-0.40664756 0.083875299 1.67375
0.93247128 0.11632539 1.6744502
-0.78143859 0.065099329 1.6863751
-0.77493113 0.065128282 1.6871252
-0.76779181 0.065104157 1.6865001
-0.4067497 0.076566614 1.6875001
-0.40699103 0.083471052 1.6885
0.93327075 0.10828003 1.6832501
0.92930889 0.11519151 1.6843334
0.93322033 0.11575254 1.6841874
-0.80229801 0.058521602 1.6942501
-0.80000329 0.060815513 1.6942501
-0.42442477 0.070115089 1.6972501
-0.40672114 0.076993763 1.6969167
-0.40609458 0.081616968 1.6975001
-0.79362512 0.063332915 1.70025
-0.77464885 0.063957736 1.7015625
-0.40678656 0.077443153 1.7068334
-0.40737873 0.084737435 1.7048
0.93638414 0.11635413 1.7013334
-0.81291306 0.058217108 1.719125
-0.77503628 0.065435648 1.7151667
-0.7688539 0.068396486 1.71175
-0.41129786 0.073351681 1.7192501
-0.40777546 0.076837659 1.719125
-0.40708971 0.083799221 1.7186875
0.94481885 0.11519101 1.7183502
-0.78426439 0.061928261 1.7252501
-0.77684146 0.065008067 1.7243334
0.93471336 0.11718751 1.7272002
-0.81795442 0.060006879 1.7372501
-0.78210247 0.063585445 1.738625
-0.77630872 0.066339552 1.7388334
-0.45011923 0.069295526 1.7342501
-0.41192627 0.075268716 1.7366251
-0.40848646 0.078812577 1.7370001
-0.40886858 0.08477255 1.7386252
0.93846458 0.11395809 1.7350001
0.94670129 0.1170435 1.7343056
0.95284539 0.11267799 1.7333751
-0.77331871 0.065013781 1.745375
-0.76779419 0.067410693 1.74625
-0.4557946 0.069804974 1.7470001
-0.43549019 0.069585212 1.7415001
0.93827373 0.11677048 1.7419167
0.94612932 0.1144589 1.742625
0.95328349 0.11382053 1.7449168
-0.82287836 0.060542267 1.75275
-0.48287445 0.066565052 1.755125
-0.46130779 0.070284463 1.7590001
-0.43692437 0.070194557 1.7567501
-0.41448879 0.075246848 1.75245
-0.41089779 0.085686758 1.7573751
0.94626236 0.11538745 1.7567501
0.95507509 0.11283121 1.7540001
1.1280632 0.11080278 1.7595
-0.82110888 0.060939491 1.76425
-0.81525075 0.06094813 1.7645001
-0.80916142 0.060939491 1.76425
-0.79267383 0.062058911 1.762125
-0.78198946 0.06325639 1.7622501
-0.7758159 0.065427758 1.7645
-0.77082378 0.070594132 1.7667501
-0.43407354 0.070699021 1.7693752
-0.42477533 0.070547514 1.7655834
-0.41409993 0.074736282 1.7629
-0.79522288 0.061431706 1.7785001
-0.78481424 0.061371259 1.7767501
-0.77486473 0.066049628 1.7732501
-0.76518875 0.070847854 1.7731001
-0.75229132 0.070763946 1.771
-0.48165292 0.070823878 1.7725
-0.46705121 0.070793912 1.7717501
-0.41307959 0.084236413 1.7770001
0.94785661 0.11825991 1.7760834
0.95159465 0.11572457 1.7740835
-0.78200513 0.062557481 1.7877501
-0.77480614 0.067167863 1.7869687
-0.76849931 0.068224967 1.7882501
-0.47466883 0.071216792 1.7823334
-0.4154377 0.075590864 1.7830002
-0.41183922 0.08416976 1.786536
0.98471248 0.10997643 1.7847501
0.92818648 0.11594279 1.7862856
0.93513256 0.11458648 1.7862062
0.94582719 0.11501042 1.7860956
0.95246279 0.11237515 1.7845001
0.97694367 0.1109038 1.7867502
0.98204875 0.11008427 1.7865001
-0.78128183 0.061949827 1.7935001
-0.7768243 0.063426845 1.7960359
-0.76786935 0.068014711 1.793375
-0.41408753 0.074019261 1.791775
-0.40862092 0.076998748 1.7933502
-0.41087472 0.087945528 1.7954167
-0.4083969 0.082587704 1.7934375
0.95931989 0.11039236 1.7915001
0.96508664 0.11152402 1.7941
0.97402078 0.11054641 1.7940001
1.1490601 0.11043858 1.79225
-0.77209193 0.063880377 1.8022919
-0.76683986 0.065079346 1.8045313
-0.40963945 0.069649674 1.8042501
-0.41196889 0.072072536 1.80375
-0.4080759 0.074954323 1.8045417
-0.40799111 0.085733101 1.80345
0.93837386 0.10596752 1.8056666
0.94496024 0.1048876 1.807125
0.95302016 0.10737095 1.8087083
1.1564128 0.10759526 1.8056251
-0.77445334 0.060639054 1.8165716
-0.76729584 0.065922439 1.819375
-0.48819965 0.067425668 1.8101251
-0.41029894 0.070180468 1.8180001
-0.40647125 0.07507769 1.8174
-0.40711436 0.08615683 1.8175312
0.95699024 0.10448435 1.8105556
0.96481699 0.10521678 1.8116348
0.97355562 0.10620802 1.8124423
0.98472178 0.10794276 1.8114502
0.99456233 0.10830986 1.81075
1.0062114 0.10717602 1.8192501
-0.76414853 0.063539796 1.8216667
-0.74875742 0.07546486 1.82675
-0.40427747 0.085644744 1.8241668
0.034836382 0.094359323 1.8265893
0.99396026 0.1032482 1.822389
1.0030022 0.10455145 1.8218126
-0.76293582 0.064697705 1.8370625
-0.7588889 0.064777702 1.8393126
-0.40594557 0.074427947 1.8316877
-0.40320161 0.084424786 1.8333126
0.028320365 0.098406702 1.8395001
-1.3429157 0.052328017 1.8457144
-1.3383273 0.05633371 1.84825
-0.75551754 0.064916559 1.8432503
-0.75494951 0.072694875 1.8443
-0.40636951 0.077462457 1.8448751
-0.40288773 0.085209444 1.8449501
0.028335759 0.095968276 1.8405001
-1.3395946 0.053882264 1.8500001
-0.40715057 0.075342596 1.854125
-0.40268469 0.085500099 1.8566875
0.026092226 0.099409766 1.8582501
-1.3464828 0.054745864 1.8623002
-0.75821298 0.065581508 1.862125
-0.75851834 0.07317397 1.862875
-0.40662733 0.075946115 1.8690314
-0.40267569 0.086035006 1.8683126
0.075481415 0.085926972 1.8659531
0.075473167 0.096022189 1.8657657
1.1426572 0.10987125 1.8650001
1.1455674 0.11521414 1.8697501
-1.3500787 0.049533132 1.8750001
-1.3519675 0.055354085 1.8756074
-1.3477137 0.055654336 1.8759501
-1.3462549 0.062284388 1.8767501
-0.76193047 0.067394219 1.8775001
-0.75949556 0.062110156 1.8715001
-0.76132178 0.073689103 1.8760002
-0.75759751 0.074079365 1.8751669
-0.40449482 0.073488556 1.8708751
-0.4013218 0.090379678 1.8797501
1.1490208 0.112773 1.87125
1.1532866 0.11179851 1.8761251
-0.76174861 0.063053988 1.8846
-0.75663453 0.064042583 1.8848959
-0.76110655 0.070093647 1.8817501
-0.7565611 0.071419485 1.8831252
-0.40333083 0.073972531 1.8831877
-0.39946532 0.072689675 1.8830001
-0.40331358 0.08365763 1.8839643
-1.3527313 0.053504821 1.8920314
-1.3480109 0.053316522 1.8935002
-0.40227622 0.073201507 1.8962501
-0.40227622 0.080903381 1.8962501
-0.40121552 0.090932608 1.8912501
-1.3537313 0.052975189 1.9075834
-1.3547683 0.05439746 1.9120835
-0.4062539 0.086888932 1.9150001
-1.3581753 0.052136518 1.9242501
-1.3629402 0.05287369 1.9353334
