# .PCD v0.7 - Point Cloud Data file format
VERSION 0.7
FIELDS x y z
SIZE 4 4 4
TYPE F F F
COUNT 1 1 1
WIDTH 1295
HEIGHT 1
VIEWPOINT 0 0 0 1 0 0 0
POINTS 1295
DATA ascii
-0.83700818 0.6527276 1.3573335
-0.84528321 0.6523214 1.3667501
-0.85223454 0.6565389 1.3795
-0.84849757 0.65747279 1.3795
-0.854882 0.66015482 1.37925
-0.84615481 0.65876466 1.3802501
-0.86243838 0.66627485 1.3894167
-0.85751623 0.66031587 1.3835001
-0.85575455 0.65634871 1.399
-0.87205899 0.66246647 1.3965002
-0.86717087 0.6660552 1.394091
-0.8655501 0.66732752 1.4078929
-0.86316681 0.67010283 1.4080001
-0.87652397 0.66902298 1.4110833
-0.86454612 0.66544551 1.4102501
-0.86530256 0.66187268 1.42725
-0.85817116 0.66813773 1.4282501
-0.8633132 0.67149407 1.4271666
-0.12401832 0.67170554 1.439
-0.11955751 0.6787349 1.43225
0.27932233 0.67877561 1.4385
0.27929807 0.68163776 1.438375
0.28311601 0.68485659 1.4379792
0.28482029 0.69156677 1.4367501
-0.12039225 0.67078149 1.44225
-0.12568668 0.68531698 1.4442858
0.28477937 0.69716996 1.4497501
-0.8755154 0.66779691 1.4527501
-0.12380439 0.67683429 1.4517499
-0.11939148 0.67617279 1.45385
-0.12441377 0.68165302 1.4504249
-0.11921903 0.68109661 1.45175
0.28178501 0.68737137 1.4588127
0.27944654 0.69066083 1.4595001
0.28235677 0.69322371 1.4524584
-0.87319213 0.65739274 1.4675833
-0.8681215 0.65471256 1.4639502
-0.11806044 0.67292392 1.46175
0.2799252 0.67996711 1.462
0.27534479 0.68470973 1.461766
0.2825807 0.68264037 1.4620835
0.27825522 0.69321412 1.46155
-0.8777315 0.65814972 1.4707501
-0.88128179 0.66630709 1.4755834
-0.87692428 0.66522688 1.4748437
-0.86991143 0.66224486 1.4710001
-0.88225257 0.67289561 1.4768931
-0.87912965 0.67145646 1.4781251
0.28274935 0.67982769 1.4767501
0.27622458 0.68451744 1.4775208
0.28194126 0.68156856 1.4740359
-0.87672025 0.65889913 1.4859167
-0.87548083 0.66551054 1.4845001
-0.87742764 0.6740703 1.4868335
0.27622771 0.68324769 1.4847188
-0.87823963 0.66560107 1.4919167
0.061369948 0.69498694 1.492125
-0.88367224 0.66663218 1.5056499
-0.87472427 0.66763371 1.5074501
-0.87730849 0.6731053 1.5083183
0.27804619 0.68590128 1.5054376
0.28046995 0.68275934 1.5075001
0.059672195 0.69166321 1.5002501
-0.8747136 0.66560179 1.5102501
-0.86434954 0.66366297 1.5168637
-0.13223679 0.67364281 1.5145417
0.060437858 0.67996496 1.5195
0.060360301 0.68525493 1.5175501
0.27760291 0.68612546 1.5104166
0.060276274 0.69353509 1.5154376
-0.86668551 0.66558486 1.5271
-0.13121529 0.67718339 1.5225
-0.12839206 0.67549014 1.5243611
0.060507465 0.67662811 1.5212501
-0.13210149 0.6826207 1.5208334
-0.12680893 0.6834203 1.5246668
0.28147566 0.68816888 1.524
-0.88079846 0.66874647 1.5315001
-0.87722188 0.66689169 1.53105
-0.88182676 0.67521632 1.5311251
-0.87624949 0.67394143 1.5315249
-0.86778593 0.67245418 1.5305001
0.061787594 0.6769504 1.5359999
0.28251386 0.68909162 1.5352501
0.28259653 0.69061887 1.5328751
-0.8757531 0.67605966 1.5482501
-0.12557235 0.67606258 1.5444249
-0.12390928 0.68257421 1.543591
0.28623158 0.69245255 1.5497501
-0.87807596 0.67179465 1.5505
-0.12367303 0.67531484 1.55075
-0.12116507 0.68411213 1.55225
0.061825007 0.6818918 1.5543752
0.28218484 0.69282484 1.5505834
-0.86896408 0.65847313 1.5662501
-0.87099618 0.66557777 1.5680001
-0.86781132 0.66239297 1.5680001
-0.88376641 0.67662859 1.5649167
-0.12463454 0.67607152 1.5628124
-0.12198469 0.68027622 1.5627501
0.2858012 0.69618112 1.5678611
0.29135388 0.6986531 1.5660001
-0.87173754 0.66837525 1.5712501
-0.87573701 0.67464823 1.5784584
-0.12748994 0.67858356 1.5785
-0.12428306 0.68178928 1.5785
-0.87613136 0.66644198 1.5869168
-0.87551427 0.67624158 1.5824063
0.2868723 0.69677591 1.5830716
0.2913965 0.69703889 1.5815834
-0.87490022 0.6587283 1.5925001
-0.87516975 0.66562551 1.5926666
-0.87567717 0.6744445 1.5960166
-0.12670203 0.68589175 1.5955001
-0.12257189 0.6912936 1.598
-0.8819229 0.66565681 1.6092501
-0.87766439 0.66799659 1.60545
-0.874143 0.67550141 1.6041752
-0.12737018 0.68806225 1.6039168
0.2891469 0.69681787 1.6007501
0.29131496 0.69898522 1.6007501
1.0233067 0.71414077 1.6062857
-0.88261151 0.66783029 1.6145
-0.88028002 0.67376167 1.6182501
-0.87822849 0.67623091 1.6171666
-0.13011485 0.68819261 1.6110001
0.99857354 0.7066474 1.6149583
1.003382 0.70598191 1.6140772
1.0026101 0.71176749 1.6150001
1.0257658 0.717803 1.6187502
-0.88712353 0.66904384 1.62275
-0.88251936 0.67426497 1.6254064
-0.87858921 0.67859453 1.6245834
-0.13348754 0.69438678 1.6255001
-0.12833752 0.69431525 1.6253334
1.0052539 0.70544869 1.6263572
1.0027552 0.71105659 1.6258751
1.0165997 0.71655422 1.6233752
1.0229722 0.71591485 1.6209249
1.023559 0.71891749 1.63625
-0.89417499 0.67745042 1.6458437
-0.88432997 0.67739451 1.6448058
-0.87709576 0.67717218 1.6451668
1.0152787 0.7080158 1.6443751
1.0120902 0.71316558 1.6434168
-0.87126356 0.66589987 1.6531252
-0.86541903 0.66505611 1.6543667
-0.88317299 0.67777824 1.6593752
-0.8750394 0.67556936 1.6576252
-0.86892849 0.67249244 1.6565
1.0163226 0.71443772 1.6515001
1.0236474 0.71276313 1.6597501
-0.88249201 0.66963309 1.6680001
-0.87487972 0.67402661 1.6621251
-0.86825442 0.67252898 1.6695834
1.0158118 0.71633178 1.6610768
1.0215534 0.71586722 1.6600001
1.0144588 0.7216714 1.6615359
-0.88553417 0.66967529 1.67375
-0.87108612 0.66336465 1.6721251
-0.86858326 0.66657662 1.6716667
-0.88819891 0.67677689 1.6745001
1.0261371 0.71772218 1.6789445
1.0313712 0.71850675 1.6784167
1.0175775 0.72262096 1.6756668
1.0211149 0.7212503 1.6777501
-0.87551111 0.66733235 1.6850001
-0.87259382 0.67452931 1.6830417
1.0245626 0.71468228 1.6827918
-0.8758769 0.67534244 1.69365
1.0279311 0.72356647 1.6965001
1.0429456 0.72327155 1.6985
-0.88270539 0.6763429 1.7077502
1.0282028 0.71962422 1.7007501
1.0284808 0.7233761 1.7033931
1.0300518 0.72160858 1.7
-0.89174837 0.67506123 1.7162501
-0.88647968 0.67680156 1.71595
1.0303667 0.7197485 1.7120001
1.029507 0.72343636 1.7125001
-0.89226067 0.67870951 1.7285001
1.0269928 0.71081698 1.72975
-0.89337665 0.68263483 1.7375001
1.02835 0.71504474 1.7300627
1.0324879 0.71624184 1.7301252
1.0363146 0.72281915 1.73045
-0.90173203 0.68204713 1.7400001
-0.89297819 0.68207783 1.7420835
1.0507432 0.7254284 1.7537501
-0.88177699 0.66632783 1.76325
-0.87893599 0.66692781 1.7644168
-0.88419634 0.67515689 1.7603078
-0.87809724 0.67466509 1.7625751
-0.8778736 0.6827184 1.7617143
-0.8808884 0.6663444 1.7755834
-0.87935704 0.66657591 1.7708751
-0.88129169 0.67468935 1.7796252
-0.87917084 0.67482406 1.7705001
0.039624713 0.69098556 1.7875001
-0.88499284 0.66846251 1.7920001
-0.88533235 0.6747874 1.7926877
-0.13532665 0.69427139 1.7960001
0.035752852 0.69580507 1.795771
-0.889153 0.6746729 1.8053751
-0.88878369 0.68416804 1.8046252
0.030168992 0.68771678 1.801125
0.030160617 0.70215362 1.8006251
1.0180445 0.72526455 1.8096251
1.0203309 0.72637242 1.8093334
-0.890944 0.67789727 1.8140001
-0.89037102 0.68359679 1.8128334
0.028006677 0.69459099 1.8191251
0.030349057 0.69672877 1.8118751
0.027966265 0.70465195 1.8165001
0.030369995 0.70211899 1.8131251
1.0158041 0.72418958 1.8100001
1.0208479 0.72183859 1.81025
-0.87618828 0.66792887 1.8259168
-0.88215351 0.67596829 1.8263215
-0.87656105 0.67481083 1.8266945
-0.89229017 0.68462133 1.8242917
-0.88513964 0.68229562 1.8290834
-0.87737501 0.68235779 1.8292501
1.0244679 0.72604096 1.8254377
1.0301527 0.7259447 1.82675
-0.89278889 0.68649495 1.8303751
-0.88538188 0.68651849 1.8304375
-0.8784678 0.68619126 1.8306669
0.02449145 0.68733865 1.8326252
0.025742069 0.69504333 1.8333125
-0.13834061 0.70227647 1.8360001
0.025235405 0.70395201 1.8326
-0.88181472 0.67517179 1.8445835
-0.88058394 0.6852712 1.84375
-0.7375446 0.68212593 1.8420001
-0.70530355 0.68979496 1.8425001
-0.66665137 0.68490326 1.8495001
-0.13391207 0.69266534 1.8435001
0.023462819 0.70363629 1.849375
1.0369606 0.7287581 1.84325
-0.88495755 0.67741042 1.8564167
-0.44203416 0.67807978 1.8582501
-0.88374227 0.68591499 1.855625
0.023546869 0.69987494 1.8560001
0.023496123 0.70087403 1.8520001
-0.74322772 0.67639834 1.8630683
-0.73503286 0.6770761 1.8655683
-0.72444046 0.67833138 1.8693439
-0.71569645 0.67717677 1.8696501
-0.70532221 0.67694145 1.8690001
-0.68343419 0.67699903 1.8668333
-0.67634231 0.67580754 1.867481
-0.66952467 0.67910838 1.868
-0.49117154 0.67990428 1.8632501
-0.48476681 0.6770668 1.8663572
-0.46711573 0.67735291 1.86595
-0.38135812 0.67956281 1.8692501
-0.74398488 0.68536907 1.8643889
-0.73425424 0.68490183 1.8660134
-0.72446203 0.6850692 1.868
-0.71588916 0.68588972 1.868268
-0.68391299 0.68526685 1.8645469
-0.67538702 0.68404251 1.8637322
-0.66760164 0.68472171 1.8626364
-0.48524883 0.68312126 1.8674444
-0.47545975 0.6851036 1.8680894
-0.465675 0.68516195 1.8672658
-0.45620507 0.68710905 1.8684999
-0.44891015 0.68890387 1.8694168
-0.3727971 0.68032998 1.8644167
-0.74120486 0.6901803 1.8637501
-0.68560278 0.6913721 1.8635626
-0.67998362 0.69205332 1.8620001
-0.66692615 0.6915887 1.8607501
-0.47334361 0.69516975 1.8692502
-0.46554834 0.69508189 1.8667502
-0.45484585 0.69419426 1.8658215
-0.44917285 0.69391078 1.8670001
-0.19347499 0.70124078 1.8640834
-0.76402605 0.67905682 1.87765
-0.75467843 0.67735916 1.877175
-0.7126646 0.67793661 1.8700001
-0.70823234 0.67856956 1.8700001
-0.67430323 0.67630535 1.8742501
-0.56171525 0.67828995 1.8797501
-0.55789638 0.67828995 1.8797501
-0.46410519 0.67882282 1.8742001
-0.89102376 0.68210769 1.8762501
-0.88727653 0.68542302 1.876393
-0.78499687 0.68589759 1.8755
-0.77547807 0.68477792 1.8751252
-0.76548618 0.68420303 1.8727224
-0.75537986 0.68509483 1.8725179
-0.71076506 0.68616521 1.8700001
-0.70845324 0.68511319 1.8705835
-0.67162138 0.68295646 1.8785834
-0.66851079 0.68706048 1.879375
-0.564179 0.68536264 1.8794773
-0.55866015 0.68388915 1.87975
-0.50396276 0.68655777 1.8780001
-0.49687594 0.68635947 1.8752502
-0.48552644 0.68767619 1.8706669
-0.46027154 0.68146497 1.8710001
-0.45378202 0.68186724 1.8709445
-0.44811481 0.68508208 1.8705001
-0.43280798 0.68613029 1.8764445
-0.42698893 0.68663323 1.8764689
-0.39244428 0.68608904 1.877875
-0.38474202 0.68732166 1.8754586
-0.37634295 0.68709874 1.8736945
-0.36875772 0.68418962 1.8738333
-0.28224283 0.68569386 1.8730313
-0.27557018 0.6852904 1.8729546
-0.24341115 0.68452293 1.8773
-0.2381129 0.68387812 1.8776251
-0.75534016 0.69019353 1.870625
-0.57520622 0.69433153 1.8772503
-0.56507212 0.69411594 1.8785
-0.53499627 0.69437122 1.8742188
-0.5049206 0.69451034 1.8775578
-0.49535382 0.69535482 1.874297
-0.48436072 0.69282013 1.8715001
-0.47778654 0.69380724 1.8701251
-0.44542781 0.6928665 1.877875
-0.43484566 0.69449526 1.876875
-0.42451009 0.69499385 1.8767502
-0.39245892 0.69332355 1.8791074
-0.38451269 0.69471085 1.8770387
-0.37429675 0.69468874 1.8765454
-0.28432578 0.69588131 1.8757142
-0.27484921 0.69509882 1.8761166
-0.26889777 0.69601256 1.8795
-0.24336083 0.6913299 1.8788751
-0.23825558 0.69064766 1.8787501
-0.27246189 0.70044953 1.8777502
-0.13844375 0.70299798 1.8710001
-0.12180954 0.70450139 1.875
0.68569821 0.71891534 1.8795
-0.86162615 0.67835116 1.8870001
-0.77303863 0.67894077 1.8839167
-0.76616204 0.67738646 1.8829
-0.75845718 0.67637402 1.8815001
-0.74786627 0.67601448 1.8805001
-0.60826916 0.67910182 1.8820001
-0.47243744 0.67916 1.88925
-0.88292319 0.6858266 1.884729
-0.87446326 0.68478286 1.8871253
-0.86410844 0.68519533 1.88475
-0.8580178 0.6869601 1.8860939
-0.79351079 0.68640375 1.8845626
-0.78404552 0.68155938 1.8817501
-0.777053 0.68101615 1.8802501
-0.71159613 0.68679237 1.8856251
-0.70514351 0.68565089 1.8865833
-0.69658107 0.68556827 1.8850752
-0.65229124 0.68841767 1.8889169
-0.64392668 0.68599224 1.8875209
-0.63670665 0.68546742 1.8874999
-0.61170924 0.68535221 1.8886876
-0.60380119 0.68569762 1.8872919
-0.59809911 0.68581563 1.8887917
-0.57238191 0.68957418 1.8897501
-0.56944549 0.68656111 1.8885001
-0.55498379 0.68614691 1.8803571
-0.54535013 0.68559915 1.8843057
-0.53874367 0.68875057 1.8840001
-0.51500899 0.68826872 1.8831786
-0.50848728 0.68751734 1.880625
-0.46442366 0.68122178 1.8878751
-0.3650853 0.68538857 1.8845752
-0.35833228 0.68726367 1.8857502
-0.31119221 0.68930048 1.8890001
-0.30602106 0.68747425 1.8886667
-0.28661501 0.68762583 1.8844167
-0.27245429 0.68327987 1.8865001
-0.26685777 0.68758631 1.8850836
-0.24940909 0.68697512 1.8861251
-0.23646379 0.68774968 1.8847501
-0.21104869 0.68811458 1.8857501
-0.20376806 0.68716645 1.8845501
-0.1952797 0.68720311 1.8855834
-0.60342908 0.6928789 1.8894585
-0.55589509 0.69494194 1.8807336
-0.5459972 0.69477648 1.8809234
-0.53433281 0.69388837 1.8829446
-0.52574575 0.69456357 1.8844467
-0.5153361 0.69516498 1.8823751
-0.44516492 0.69680619 1.8807814
-0.42269868 0.69011837 1.88425
-0.40221134 0.69764638 1.8839167
-0.39705408 0.69627547 1.8809724
-0.37096786 0.69902217 1.8807501
-0.36522821 0.69449049 1.8840001
-0.35798964 0.69465935 1.8861876
-0.31127459 0.69332051 1.8895001
-0.30663562 0.69299126 1.8893001
-0.29196498 0.69560194 1.8887501
-0.2898781 0.69366872 1.8835001
-0.26415104 0.69463766 1.8831095
-0.25839794 0.69775683 1.8883501
-0.24601629 0.69565308 1.8845626
-0.23661035 0.69584435 1.8859377
-0.21224499 0.69423217 1.8850313
-0.20423982 0.69474769 1.8836975
-0.19455603 0.69446051 1.8846326
-0.18722844 0.69698632 1.8876501
-0.21221346 0.70306081 1.88475
-0.1936961 0.70366782 1.8846668
0.021370251 0.70854008 1.8857501
1.0328044 0.71825486 1.8889166
1.033794 0.7234655 1.8891668
-0.68584496 0.67760146 1.8956251
-0.85515803 0.68759698 1.89135
-0.80400622 0.68751681 1.8939501
-0.79760605 0.68603522 1.8917502
-0.78439885 0.68376273 1.8949169
-0.68140876 0.68086755 1.8940001
-0.67484421 0.68600047 1.8955835
-0.66515666 0.68773478 1.8970313
-0.65663904 0.6874696 1.8910002
-0.63446504 0.6879431 1.8993752
-0.62551254 0.68786782 1.8956251
-0.61664331 0.68634665 1.8909286
-0.59286058 0.68707025 1.8907814
-0.58474356 0.68646669 1.8929446
-0.57441872 0.68632829 1.8917776
-0.56658101 0.68133819 1.8917501
-0.5388236 0.68828797 1.89325
-0.52480841 0.68904132 1.8935627
-0.48561707 0.68149662 1.89575
-0.47112221 0.68095744 1.89425
-0.46605292 0.68104726 1.8945001
-0.36461389 0.6840961 1.8940626
-0.35802647 0.68818051 1.8976668
-0.33576646 0.68992394 1.8977501
-0.32332191 0.689022 1.897625
-0.31509355 0.68839723 1.8970834
-0.30574957 0.6879288 1.8965
-0.29561558 0.68919694 1.8957502
-0.28816354 0.68706197 1.8945833
-0.26581338 0.68822277 1.8983752
-0.25048348 0.68608683 1.89425
-0.23619805 0.68725306 1.8962917
-0.19674771 0.68742341 1.8955835
-0.63404763 0.69391465 1.8981252
-0.61572951 0.69480693 1.8920537
-0.58441073 0.69171649 1.8909446
-0.57687682 0.69155407 1.8905001
-0.53333771 0.69219798 1.8939286
-0.52763438 0.69130749 1.8945001
-0.42243215 0.69387174 1.8945001
-0.41571704 0.69533759 1.8943003
-0.4061195 0.69390762 1.8929807
-0.39881209 0.69039524 1.8920001
-0.35336211 0.69556594 1.895625
-0.34441659 0.69564641 1.8958439
-0.33431625 0.69454908 1.8955294
-0.32503131 0.69537556 1.8951073
-0.3163636 0.69529635 1.8931459
-0.30381632 0.69615859 1.8928751
-0.29635656 0.69497168 1.8948081
-0.25516784 0.69608694 1.8909376
-0.2499215 0.69734228 1.8900001
-0.23258638 0.6932683 1.8947728
-0.22886264 0.69691747 1.8958126
-0.1894584 0.69579536 1.8997501
-0.15326664 0.6970998 1.8936877
-0.14431772 0.69555086 1.8948835
-0.25248131 0.70246011 1.8900001
-0.18222556 0.70244181 1.8941002
-0.16460554 0.70489061 1.895014
-0.15395583 0.70399725 1.8913834
-0.14439423 0.70413697 1.8920536
-0.13743466 0.70405704 1.8920001
-0.85393238 0.68859202 1.9011668
-0.8436265 0.6880793 1.902125
-0.83522338 0.68823075 1.9025416
-0.82673007 0.68952769 1.9037501
-0.81186193 0.68918008 1.9051667
-0.80531842 0.68848372 1.9080001
-0.79617578 0.68728089 1.9046668
-0.78216308 0.68340665 1.9082501
-0.77595538 0.68363047 1.9088751
-0.68373036 0.68447787 1.9094375
-0.67573607 0.68615514 1.9051251
-0.66758704 0.68378842 1.9021251
-0.63628376 0.68726659 1.9022499
-0.6245445 0.68577737 1.9005001
-0.57170165 0.68311435 1.9002501
-0.56563884 0.68184751 1.9015001
-0.55820656 0.68649906 1.9025
-0.54501802 0.68692768 1.9036876
-0.34448734 0.68937683 1.9033333
-0.33931732 0.68934661 1.9032501
-0.26201901 0.68943715 1.9035001
-0.24190155 0.68572062 1.9075001
-0.2330943 0.6877287 1.9041251
-0.2276451 0.68857646 1.9035001
-0.19362219 0.68916553 1.9027501
-0.54194391 0.69133866 1.9087501
-0.53596461 0.69235533 1.9085
-0.52887928 0.69115758 1.9082501
-0.3443214 0.69162053 1.9024168
-0.22381245 0.69466972 1.9011966
-0.21661599 0.69426477 1.9026072
-0.19119504 0.69099617 1.9042501
-0.18564065 0.69671226 1.9046041
-0.17469089 0.69790202 1.9039446
-0.16596213 0.69710082 1.9047251
-0.15604624 0.69643009 1.904125
-0.14108905 0.69577754 1.9067501
-0.18185894 0.70140088 1.9010001
-0.17923707 0.70121634 1.9005001
-0.16401793 0.70089561 1.903125
1.0386896 0.71951228 1.9012501
1.0419493 0.71740949 1.9025
1.0382944 0.72618455 1.9052501
1.0498174 0.72780859 1.9027501
-0.84510899 0.68936574 1.9162
-0.68984228 0.6815365 1.9102501
-0.67958224 0.68421239 1.9105
-0.55402082 0.6883269 1.9147501
-0.54787427 0.68734294 1.9144168
-0.47775134 0.68421239 1.9105
-0.46954176 0.6873461 1.9192501
-0.36385021 0.68929559 1.9102501
-0.32269356 0.68980676 1.9116669
-0.25256616 0.68920541 1.9100001
-0.22681588 0.68956625 1.9110001
-0.81584078 0.69082916 1.9145001
-0.54300863 0.69010752 1.9125001
-0.34555048 0.69150579 1.9163752
-0.33298492 0.69496059 1.91875
-0.31644109 0.69028795 1.9130001
-0.18148574 0.69719148 1.910625
-0.17372018 0.6972087 1.9154167
-0.16663228 0.69742215 1.918375
-0.14440636 0.69609118 1.9165001
-0.13928744 0.69970024 1.9175001
-0.13934192 0.70516825 1.9182501
-1.3600456 0.67246842 1.92875
-0.69067132 0.68751252 1.927
-0.68823993 0.68769097 1.9275001
-0.49479866 0.68994254 1.9265001
-0.47368771 0.68770421 1.9202501
-0.24531311 0.68909198 1.9241251
-0.79397994 0.6904816 1.9243751
-0.55814397 0.69083792 1.9290001
-0.42212287 0.69840145 1.9282501
-0.37172943 0.69174206 1.9242501
-0.36921915 0.69192177 1.9247501
-0.35110778 0.69219136 1.9255
-0.34840938 0.69201165 1.9250001
-0.30452073 0.69561028 1.9277501
-0.27085966 0.69633198 1.9297501
-0.26821128 0.6962418 1.9295001
-0.25204062 0.69228125 1.9257501
-0.24123132 0.69120282 1.9227501
-0.23463708 0.69095564 1.9220625
-0.22022603 0.69586611 1.9212501
-0.20198481 0.69317466 1.9210001
-0.19545513 0.69308442 1.9207501
-0.18519858 0.69573343 1.9223251
-0.17532349 0.69754767 1.9235001
-0.16459525 0.69847929 1.9248751
-0.15414561 0.6984055 1.9246668
-0.14863838 0.69703078 1.9208751
0.56933004 0.71807498 1.9250001
0.56925613 0.72189069 1.9247501
-0.47372404 0.68893969 1.9310001
-0.46967939 0.68876129 1.9305001
-0.55219603 0.69189882 1.9356251
-0.54506212 0.69401979 1.9324063
-0.35107902 0.69468778 1.9397501
-0.34713826 0.69600093 1.9397501
-0.30349076 0.69662505 1.9378334
-0.29972625 0.69660264 1.9305001
-0.22847205 0.69727659 1.9360001
-0.20322061 0.69610626 1.9327501
-0.19527481 0.69446808 1.9318334
-0.18732804 0.69410866 1.9308335
-0.16244581 0.69917113 1.9303751
-0.15849335 0.69903529 1.9300001
0.57651865 0.71686685 1.9386501
0.5814991 0.71823192 1.9395001
0.93913317 0.71782964 1.9348751
0.94247437 0.71673536 1.9354585
0.58170617 0.72226697 1.9380001
0.93858975 0.72336012 1.9391667
0.94328511 0.72438508 1.9391
1.0238433 0.72872883 1.9348335
1.0234581 0.73238599 1.937
-0.58504856 0.69536167 1.9490001
-0.55095857 0.69232911 1.9405001
-0.54889548 0.69304264 1.9425001
-0.50038487 0.69509411 1.9482501
-0.33035925 0.69794315 1.9415001
-0.32507235 0.6952548 1.9413334
-0.31195232 0.69794315 1.9415001
-0.3092033 0.69767356 1.9407501
-0.2969377 0.69974059 1.9465001
-0.24386601 0.69612038 1.9437501
-0.27352652 0.70054948 1.9487501
-0.21026225 0.70345861 1.9495001
-0.20764847 0.7009089 1.9497501
-0.18082282 0.70192498 1.94525
-0.15188079 0.70210546 1.9457501
-0.14438222 0.70205462 1.9441502
-0.1386151 0.70691985 1.9445001
0.67154425 0.70864671 1.9492501
0.57858282 0.71390885 1.9444166
0.58340073 0.71490598 1.94475
0.66622341 0.7155962 1.9474168
0.67200118 0.71432579 1.9467502
0.83551049 0.71722633 1.943
0.84252459 0.7176128 1.94375
0.9356699 0.71929568 1.9495001
0.94443953 0.71728742 1.9481429
0.95370245 0.71697533 1.9475
0.66623056 0.72301322 1.9452999
0.67243767 0.72451371 1.9452858
0.83585852 0.72334135 1.9433501
0.84452325 0.72528028 1.9457252
0.85095912 0.72438878 1.9490001
0.92792332 0.72705042 1.9476502
0.93496859 0.72545236 1.9458501
0.94418842 0.72705787 1.9420502
0.9545446 0.72484547 1.945327
0.96509808 0.72743356 1.9486752
0.97460955 0.72803521 1.9481667
0.98005384 0.72947919 1.9485
-0.70955676 0.69309366 1.9575001
-0.25205863 0.69794834 1.9562502
-0.19219756 0.69970167 1.9537501
-0.18737708 0.69842887 1.95315
-0.34715301 0.70133817 1.9546251
-0.27637845 0.70108873 1.9502501
-0.26166549 0.7041443 1.9587501
-0.25622874 0.7011342 1.9577501
-0.22708876 0.70475894 1.9580001
-0.1828306 0.70194244 1.952625
-0.17878358 0.70427048 1.95175
-0.1552323 0.70447081 1.9547501
-0.067889109 0.70032841 1.9555001
0.38830122 0.7094484 1.9587501
0.39526308 0.70697951 1.958591
0.40459582 0.70786947 1.9589689
0.41502473 0.70978045 1.9596667
0.42035082 0.70981061 1.9597501
0.44954789 0.70981061 1.9597501
0.45616907 0.70779049 1.9590558
0.46016499 0.70450377 1.9597501
0.5352124 0.70901835 1.9575627
0.5858317 0.70931256 1.9583751
0.66764623 0.70796937 1.9517502
0.67412812 0.70872402 1.95675
0.38697457 0.71475244 1.9587501
0.39496294 0.71538711 1.9575837
0.40526742 0.71558678 1.9574065
0.414556 0.71565813 1.958591
0.42164218 0.71505642 1.9595834
0.45595995 0.71476793 1.9587917
0.47804266 0.7180419 1.9568751
0.48356506 0.71719843 1.9565835
0.51583314 0.71754062 1.9582188
0.5247044 0.71577418 1.957922
0.53436649 0.71451193 1.9544688
0.54099452 0.71452087 1.9545001
0.5788312 0.71813333 1.9571252
0.58536845 0.71225345 1.9546252
0.59081167 0.71526748 1.9529167
0.64484173 0.71888024 1.958643
0.65483594 0.71731234 1.9585
0.66308784 0.71419793 1.9548126
0.67864728 0.71716964 1.9545001
0.71868157 0.7188217 1.9590001
0.72504038 0.71697986 1.9589092
0.73186994 0.7155565 1.9595001
0.76545715 0.71624875 1.9572692
0.77136773 0.71673101 1.9569168
0.83640623 0.71757513 1.9520001
0.84806615 0.71849412 1.9545001
0.85101891 0.71854651 1.95825
0.88632715 0.7164408 1.9553999
0.89478403 0.7153914 1.9545684
0.90423745 0.71778643 1.9569002
0.92874032 0.71742123 1.9515835
0.93478429 0.71558416 1.9511594
0.95918036 0.71844268 1.9543751
0.96417201 0.71820807 1.9580501
1.0076599 0.71676427 1.9594167
1.0114803 0.71987265 1.95825
0.54037172 0.72163206 1.9522501
0.5747453 0.7229535 1.9522501
0.59048396 0.72279888 1.9518334
0.67751884 0.72258228 1.9512501
0.70681173 0.72437745 1.958143
0.71508801 0.72498894 1.9569999
0.72443622 0.72589713 1.9566251
0.73171514 0.72389537 1.9583751
0.75869262 0.72306395 1.956125
0.7649914 0.724778 1.9536095
0.77428806 0.72383177 1.95225
0.78499484 0.72620809 1.9532498
0.79526722 0.72691035 1.9534168
0.80224246 0.72833323 1.9525001
0.83450377 0.72425258 1.9521877
0.85562527 0.72504765 1.9536251
0.8651498 0.72507226 1.955456
0.8751862 0.72457004 1.9546388
0.88541532 0.72426248 1.9522188
0.89544874 0.72489333 1.9539167
0.90532172 0.72437656 1.957525
0.91139251 0.72838426 1.9597501
0.92655808 0.72449702 1.9533573
0.96591014 0.72238827 1.9519167
0.97285569 0.72407502 1.9510002
0.98230565 0.72782671 1.95825
1.0080588 0.72354496 1.9589645
1.0141946 0.72566766 1.9564533
1.0230235 0.72805732 1.954125
1.0315824 0.72875285 1.9536252
1.0086993 0.73038483 1.9580001
1.2258621 0.73556954 1.9584724
1.2332761 0.73666829 1.9592001
-0.86280847 0.67991602 1.9653752
-0.8586154 0.67709762 1.9649168
-0.86178809 0.68548506 1.9660834
-0.85755974 0.68613559 1.9668573
-0.58474362 0.69686431 1.96215
-0.55422169 0.69878727 1.9660625
-0.48307276 0.69661355 1.9636877
-0.47849882 0.69636881 1.9667501
-0.38284656 0.69947588 1.9680001
-0.32840723 0.69973218 1.9612501
-0.24599886 0.69955385 1.9607501
0.35966909 0.69991064 1.9617501
0.36237225 0.69999981 1.9620001
-0.37603933 0.70187294 1.9672502
-0.32292989 0.70202953 1.9602501
-0.30520865 0.70269054 1.9658126
-0.29995057 0.70417833 1.9662501
-0.24390171 0.70115936 1.9652501
-0.20566535 0.70305198 1.9686875
-0.19773553 0.70263106 1.9693751
-0.18114193 0.70301437 1.9630001
-0.17587481 0.70587432 1.9635626
-0.16549087 0.70695281 1.9665626
-0.15725689 0.70585191 1.9635
0.35796013 0.70597517 1.9627858
0.36263385 0.70582247 1.9634167
0.38802746 0.70790678 1.9618335
0.39495528 0.70263898 1.9638126
0.40559834 0.70342344 1.9641501
0.41397676 0.70615035 1.9673001
0.42562744 0.70579803 1.9628669
0.43499693 0.70570785 1.9649583
0.449056 0.70543677 1.9605
0.45446473 0.70312679 1.96035
0.4603411 0.70211905 1.9605001
0.49979919 0.70534223 1.9695001
0.50484169 0.70493466 1.9683614
0.51448345 0.70710588 1.9663182
0.52521843 0.70681751 1.9619644
0.5346337 0.70733756 1.9651667
0.54247892 0.70800877 1.9695001
0.66975224 0.70986348 1.9672501
0.68641132 0.708942 1.9676501
0.69463235 0.70677584 1.9685417
0.70390654 0.70805371 1.969625
0.73127449 0.70884508 1.9607501
0.35595974 0.71488667 1.9643214
0.36112162 0.71253872 1.9648334
0.42730078 0.71456748 1.9603214
0.43528613 0.71434253 1.9612658
0.44559181 0.71452355 1.9610335
0.48554429 0.71651053 1.9679501
0.49117243 0.71909297 1.967
0.50588733 0.7140395 1.9689723
0.51346946 0.71389568 1.964667
0.52546263 0.71017277 1.9607501
0.53940034 0.71013415 1.9680001
0.54594147 0.71596688 1.9675626
0.55041152 0.71858394 1.9692501
0.57967854 0.7165091 1.9660001
0.5842095 0.71230161 1.9681
0.59510869 0.71354401 1.9682189
0.60251647 0.71736449 1.9695625
0.61983603 0.71867514 1.9695001
0.62386608 0.71782094 1.9630001
0.63865286 0.7185033 1.9617501
0.64486003 0.71538806 1.9644774
0.65035647 0.71437258 1.9650002
0.66581619 0.71116883 1.9635001
0.67674398 0.71096998 1.9659001
0.68487048 0.71495819 1.9653959
0.69482505 0.71487045 1.9672353
0.70551896 0.71499276 1.9685417
0.71463013 0.71521771 1.9661111
0.72359312 0.71178627 1.9606252
0.7382763 0.71978515 1.9652501
0.76205659 0.71438313 1.9613751
0.83718348 0.71773988 1.9620835
0.84469426 0.71481389 1.9618336
0.85421032 0.71735495 1.9640626
0.86796719 0.71738732 1.969625
0.87437516 0.71684927 1.9675417
0.8853839 0.71725625 1.9668332
0.91644543 0.71817178 1.9637501
0.9222874 0.71872842 1.9660001
1.0045485 0.71795392 1.9602501
0.51029593 0.72161913 1.9654168
0.61411589 0.72393465 1.964486
0.62489003 0.72060794 1.96025
0.6341868 0.72069997 1.9623126
0.69557601 0.72481084 1.9649335
0.70427525 0.72242153 1.9640769
0.73679709 0.7249819 1.9613125
0.74315387 0.7264244 1.9664167
0.79510874 0.72350985 1.9617223
0.80402422 0.72527432 1.9633056
0.8119247 0.72768193 1.9674168
0.83539414 0.72430801 1.9630834
0.85812747 0.72138906 1.9623752
0.86601979 0.72109795 1.9652084
0.87510198 0.72090781 1.9646876
0.88271022 0.72051829 1.9648334
0.91537189 0.7250315 1.96145
0.92419279 0.72476226 1.9628835
0.96991044 0.72051597 1.96
0.97625607 0.72326863 1.96315
0.98319399 0.72597414 1.9640001
0.99849021 0.72996384 1.9640001
1.0033865 0.72552204 1.961875
1.0240543 0.72551841 1.9645627
1.2278781 0.72875589 1.9607501
1.2363311 0.72831374 1.9643334
1.2426063 0.72850823 1.9672501
0.98832172 0.73254412 1.9614167
1.0315911 0.73080009 1.9662501
1.2362868 0.7349593 1.96315
1.2427791 0.73403692 1.9654168
-1.2231088 0.66469777 1.9755001
-1.2067463 0.6683917 1.9706252
-1.2419964 0.67815506 1.9757501
-1.2347314 0.6777423 1.977893
-1.2296079 0.6767621 1.9795001
-1.1042938 0.67925072 1.9711667
-0.83197415 0.67875576 1.9775001
-0.82819223 0.67760921 1.9780626
-0.77257913 0.67983937 1.9728751
-0.76756692 0.67795849 1.9725834
-1.2352434 0.682935 1.9756502
-1.1126348 0.68644071 1.9765
-1.1040598 0.68444383 1.97075
-1.0984426 0.68427008 1.9702501
-0.86121786 0.6825974 1.977
-0.8555004 0.68685049 1.9700001
-0.83274186 0.68537229 1.97805
-0.82565022 0.68580401 1.9777503
-0.77414393 0.68404841 1.9734584
-0.72434032 0.68793488 1.978875
-0.71837223 0.68968332 1.9781251
-0.52321994 0.68387562 1.9706501
-0.51508915 0.68513423 1.9712
-0.5099948 0.6833322 1.9752501
-0.43193394 0.6873737 1.9791876
-0.42760184 0.68955255 1.9777501
-0.41935375 0.68920392 1.9767501
-0.39381152 0.68733996 1.9775501
-0.38663164 0.68661863 1.9737146
-0.34334901 0.68590355 1.9721593
-0.33534667 0.68746752 1.9708126
-0.18929689 0.68990123 1.9787501
-0.73065954 0.69391954 1.9787501
-0.72523057 0.69307339 1.9771001
-0.71497804 0.69434482 1.9761502
-0.66449547 0.69607055 1.9772501
-0.56461757 0.69674546 1.9791666
-0.55836302 0.69719213 1.9791666
-0.52206457 0.69273829 1.9753752
-0.5178628 0.69275224 1.9746501
-0.47543794 0.69774079 1.9706252
-0.43243065 0.6919201 1.9794167
-0.42495936 0.69496697 1.9779167
-0.41951284 0.6948207 1.9775001
-0.39370185 0.69550979 1.9756564
-0.38686273 0.69524264 1.9748961
-0.34140939 0.69528139 1.9750001
-0.33461225 0.69587302 1.9722046
-0.19181319 0.69600308 1.9770627
-0.18777275 0.6959151 1.9768127
0.36246502 0.69999802 1.9770001
-0.42245802 0.70061767 1.9787501
-0.38191977 0.70267475 1.9770001
-0.33567053 0.70267761 1.9727143
-0.32764024 0.70245504 1.972625
-0.23647256 0.7063635 1.9773334
-0.21292379 0.70665407 1.9791501
-0.20679531 0.70356327 1.9795001
-0.19398126 0.70152009 1.9718752
-0.18558219 0.70248133 1.9734501
-0.072653845 0.7080282 1.977
-0.068548732 0.7098062 1.9745001
0.36698964 0.70547038 1.9773334
0.37509704 0.70597613 1.9772499
0.38522997 0.70615292 1.975159
0.39205003 0.70398355 1.9731668
0.4168897 0.70385712 1.973893
0.42311925 0.70576096 1.9751501
0.43905923 0.70365679 1.9722501
0.44529805 0.70701146 1.9726751
0.45201382 0.70303243 1.9705001
0.46580297 0.70504588 1.97465
0.49490035 0.70655286 1.9728849
0.54563081 0.70863789 1.9712501
0.58939308 0.70989609 1.97475
0.60406101 0.70827842 1.9702501
0.64715701 0.70823359 1.9731001
0.6529215 0.70917714 1.9727501
0.70675355 0.70689988 1.9701252
0.73481762 0.70827842 1.9702501
0.3661747 0.71589726 1.9753336
0.37451434 0.71472007 1.9769999
0.38393041 0.71475804 1.9751154
0.44534174 0.71103626 1.9705001
0.46585003 0.71445888 1.9725834
0.47918811 0.71976984 1.9725001
0.4867731 0.7134409 1.9734688
0.49547645 0.71450669 1.9708753
0.50133425 0.71629643 1.9702917
0.54735839 0.71200144 1.9717001
0.55473977 0.7164638 1.9734321
0.56485921 0.71769118 1.9778126
0.57580036 0.71592063 1.9766251
0.58337349 0.71194845 1.9755001
0.595523 0.71069801 1.9751251
0.60566896 0.71582776 1.976375
0.61546141 0.71916425 1.9750358
0.62489605 0.71588796 1.9728439
0.63745636 0.71777129 1.9731251
0.64450806 0.71293527 1.9715358
0.65619648 0.7139585 1.9736667
0.66455394 0.71369988 1.9761732
0.67421925 0.71050274 1.9764376
0.68265915 0.71092963 1.9776251
0.73867148 0.71476126 1.9734167
0.76851666 0.71775949 1.9780002
0.77592659 0.71728092 1.973
0.79793042 0.71666586 1.9772002
0.80505472 0.71542299 1.9763845
0.81431746 0.71675301 1.9764584
0.86645281 0.71834242 1.9722501
0.87044603 0.71542466 1.9752501
0.89237237 0.71637207 1.9705001
0.9657656 0.71904004 1.9705001
0.97178119 0.71954179 1.9718751
1.0154239 0.71712381 1.9762502
0.55880284 0.72308743 1.9706252
0.57293004 0.72197658 1.9733216
0.63433868 0.7213335 1.9731252
0.74480301 0.72353983 1.9755001
0.75485694 0.72733998 1.9761391
0.76218939 0.72533876 1.9743334
0.77869749 0.72004354 1.9732502
0.78491253 0.72485352 1.9754375
0.79439181 0.72495878 1.9757249
0.80526894 0.72221982 1.9743334
0.81479126 0.7236836 1.9750835
0.82054949 0.72694844 1.9775001
0.83851129 0.72704011 1.9777502
0.86414737 0.72236282 1.9771667
0.96151811 0.72152489 1.9700001
0.99204445 0.72879475 1.9776667
1.0073673 0.7246297 1.9741001
1.0145894 0.72054529 1.9746251
1.0206923 0.72146922 1.9735
1.0312233 0.7289809 1.9757501
1.0431491 0.72796625 1.973
0.98970461 0.73063755 1.973
0.99714768 0.73285568 1.9761
1.0029986 0.73156333 1.9755001
1.0367385 0.73140401 1.9726667
1.0413237 0.73149705 1.9729167
1.2170222 0.73794955 1.9711251
1.2256811 0.73437339 1.9712503
-1.2426689 0.66801834 1.9853752
-1.2335299 0.6672287 1.9820315
-1.2275467 0.66771883 1.9805001
-1.1984365 0.66868806 1.9833751
-1.1897088 0.66772389 1.9845001
-1.2516884 0.67758751 1.9819168
-1.2451966 0.674344 1.9833077
-1.2342709 0.67419273 1.9820716
-1.2282857 0.67344362 1.98025
-1.2132878 0.67544413 1.9835001
-1.2047403 0.67502373 1.98325
-1.1947179 0.67448246 1.9849231
-1.1858261 0.67740518 1.9861
-1.1797003 0.6735217 1.9857501
-1.1137166 0.67727715 1.9841502
-1.1082983 0.67639214 1.9843127
-0.84271485 0.67786169 1.988625
-0.83562589 0.67629802 1.9868889
-0.82716829 0.67872792 1.9852501
-0.7287153 0.67987126 1.9807501
-1.2494787 0.68004292 1.98125
-1.2336456 0.68167329 1.9860001
-1.1933981 0.68173051 1.9861666
-1.1882174 0.68184495 1.9865001
-1.1135761 0.68222553 1.98175
-1.1047636 0.68408233 1.9829645
-0.86220801 0.68578601 1.9854501
-0.84371895 0.6858238 1.987639
-0.83683318 0.68410593 1.9826669
-0.82478285 0.68190104 1.9827501
-0.79131454 0.68834847 1.9897501
-0.78560418 0.68817812 1.9866667
-0.73241353 0.68438596 1.9835001
-0.72375834 0.68350488 1.9804001
-0.71709424 0.68700838 1.9820001
-0.66468608 0.68725753 1.9858249
-0.57072276 0.68558085 1.9817501
-0.56402522 0.68532813 1.9818001
-0.55970389 0.68523526 1.9807501
-0.5320676 0.68496519 1.9877501
-0.51135027 0.68782991 1.9805001
-0.46499637 0.68800247 1.9887501
-0.45565405 0.68813223 1.989125
-0.4459053 0.68696189 1.9876876
-0.43817946 0.68716735 1.9811668
-0.41846815 0.68947959 1.9852501
-0.40238589 0.68687814 1.9855001
-0.39689618 0.68521881 1.98225
-0.35153523 0.68869865 1.9868751
-0.28995159 0.68808895 1.9890001
-0.21646138 0.68837982 1.9820834
-0.16414368 0.68852448 1.9825001
-0.86062455 0.69043463 1.988
-0.835778 0.69307595 1.9801668
-0.78523886 0.69265538 1.9866501
-0.73320282 0.69371986 1.9820001
-0.71284306 0.69282901 1.9813752
-0.66502166 0.69331616 1.9818126
-0.65648639 0.69514728 1.9835333
-0.6035251 0.69855344 1.9881251
-0.59553099 0.69730568 1.9884064
-0.58904803 0.69894874 1.9892501
-0.56499797 0.69185185 1.9805002
-0.55784899 0.69481981 1.9813125
-0.53236878 0.69208539 1.9888752
-0.52694333 0.69652629 1.9861876
-0.5128634 0.69629288 1.9844775
-0.50771004 0.69824606 1.9872501
-0.49032411 0.69917303 1.9822501
-0.48533258 0.69787025 1.9816
-0.46471465 0.69504589 1.9885911
-0.45759058 0.69380337 1.9890834
-0.44212848 0.69208539 1.9888752
-0.43635368 0.69068569 1.9810001
-0.41891605 0.69694483 1.987375
-0.40097404 0.69464701 1.9885001
-0.3814787 0.69628447 1.9816667
-0.37768349 0.69805121 1.9828751
-0.35108554 0.69453472 1.9843335
-0.34676602 0.69664383 1.9826877
-0.33183992 0.69631356 1.9817501
-0.32948804 0.69970214 1.9837501
-0.30129501 0.69705868 1.983875
-0.29523346 0.69652337 1.9841154
-0.2891078 0.69521713 1.9862918
-0.27364784 0.69500172 1.9879751
-0.26448277 0.69484842 1.9875963
-0.23067138 0.69477797 1.9888752
-0.22508839 0.69551653 1.987139
-0.21538834 0.6953572 1.9820836
-0.20824097 0.69855577 1.9805001
-0.19507499 0.69943756 1.983
-0.18484318 0.69868523 1.9885001
-0.16271029 0.69541216 1.9868332
-0.15517274 0.69525355 1.9879252
-0.14530243 0.69669574 1.9879442
-0.13483739 0.69505215 1.9858125
-0.12534368 0.69595814 1.9845628
-0.11997168 0.69597989 1.984625
-0.46236089 0.70155388 1.9890001
-0.45984036 0.70181841 1.9897501
-0.41925859 0.70155388 1.9890001
-0.40050197 0.70307726 1.9895
-0.3810955 0.70266312 1.982
-0.30501851 0.70306569 1.9818751
-0.29559264 0.70299166 1.9816667
-0.28782353 0.70301253 1.9836252
-0.27379882 0.70462137 1.9872955
-0.26504329 0.70411342 1.9858638
-0.25719991 0.70342058 1.985719
-0.23264787 0.70623517 1.9878612
-0.22502744 0.70474291 1.9866041
-0.21614644 0.70382625 1.9819167
-0.20821469 0.70114875 1.9802501
-0.19527175 0.70283061 1.9850001
-0.18352501 0.70552772 1.9888126
-0.16401231 0.70556444 1.9878396
-0.1550865 0.70481545 1.9868125
-0.14568034 0.70489031 1.9859118
-0.13481663 0.70435727 1.9855158
-0.12482091 0.70571601 1.9848001
-0.11997168 0.70404142 1.9846251
0.42492375 0.70433313 1.9873439
0.43300533 0.70636225 1.987375
0.44888631 0.70651102 1.9802501
0.45265254 0.70502013 1.9810834
0.47476652 0.70641887 1.9875358
0.48417535 0.70885378 1.9893335
0.49314213 0.70754844 1.9856668
0.52532476 0.70785141 1.9802501
0.53471142 0.70785159 1.9802501
0.54000765 0.70910263 1.9800001
0.62831134 0.70788574 1.987875
0.47494438 0.71475405 1.9837834
0.48461172 0.71401948 1.9856044
0.55647522 0.7139852 1.986125
0.56540352 0.714854 1.9878637
0.57092053 0.71354872 1.9849167
0.60973197 0.71446425 1.9800001
0.61526829 0.71466428 1.9805559
0.62403369 0.71369469 1.9828334
0.63429582 0.71650618 1.986594
0.64257753 0.71595269 1.9841251
0.74705237 0.71714038 1.9874167
0.7535159 0.71684414 1.9890833
0.77501941 0.71789962 1.9820834
0.84796458 0.71770126 1.9852501
0.85999852 0.71786946 1.9820001
0.8726033 0.71940875 1.98625
1.0191519 0.71667439 1.9861251
1.0232528 0.71671945 1.98625
0.48149598 0.72055292 1.9820001
0.63815653 0.72164357 1.9850001
0.74811572 0.72314596 1.9866668
0.7551797 0.72399396 1.9867144
0.76291257 0.72229552 1.9843334
0.78294903 0.72139376 1.9806252
0.82262415 0.72341889 1.9825001
0.84390843 0.72270358 1.98475
0.86553133 0.72135991 1.9823751
0.87067956 0.72004259 1.988
0.9589588 0.72564524 1.98125
0.96428508 0.72472054 1.9811667
0.99553645 0.72822499 1.9846251
1.0271052 0.72291595 1.9885001
1.032232 0.72811747 1.988
1.0026712 0.73198938 1.9863334
1.0364668 0.7309469 1.9883751
1.0409638 0.73396194 1.9892501
1.2686845 0.73647147 1.9851251
1.2756671 0.7368511 1.9841391
1.2822191 0.73776615 1.9831876
1.2964685 0.73832643 1.9865
1.3014556 0.73746109 1.9865834
-1.2316942 0.67778093 1.9930001
-1.2275033 0.67795062 1.9935001
-1.1241045 0.6786468 1.996875
-0.84643483 0.67652839 1.9926251
-0.83347458 0.67457652 1.9928335
-0.75183421 0.6784237 1.9922501
-0.74875987 0.6767357 1.99125
-1.3136555 0.6820215 1.9980501
-1.2366533 0.68422538 1.997375
-1.1238425 0.68603492 1.9928125
-1.1123875 0.68325835 1.9985002
-1.0351818 0.68768173 1.999
-0.85430938 0.68660367 1.9944689
-0.84860009 0.68216985 1.9913751
-0.82694471 0.68591881 1.9944377
-0.77358955 0.68736595 1.9973335
-0.75498205 0.68557626 1.9934374
-0.74875247 0.68603408 1.9955502
-0.73564446 0.68651587 1.9922501
-0.71494401 0.68866956 1.9985001
-0.69328403 0.68598431 1.9907085
-0.68630111 0.68709552 1.99315
-0.67531663 0.68738836 1.9987084
-0.6624577 0.68347526 1.99125
-0.65507531 0.68751603 1.9934169
-0.64518493 0.68784332 1.9943613
-0.63770139 0.68577445 1.9948002
-0.61143285 0.68753815 1.9978334
-0.60504305 0.68700123 1.9975835
-0.59485847 0.68766719 1.9982084
-0.58594698 0.68807161 1.9951999
-0.57943392 0.6868605 1.9932501
-0.51142889 0.68886733 1.99125
-0.50669104 0.68886095 1.9938334
-0.49353975 0.68754965 1.9952501
-0.48257911 0.68868452 1.9946251
-0.47566199 0.68844718 1.9939376
-0.4674381 0.68715644 1.9915
-0.28614408 0.68865108 1.9906251
-0.86160028 0.6906836 1.9965001
-0.8548311 0.69106185 1.99175
-0.77656704 0.69351709 1.996875
-0.75406188 0.69406831 1.9945749
-0.7444163 0.69406891 1.995875
-0.73942369 0.69562435 1.9951668
-0.71413761 0.69465178 1.9962502
-0.69313067 0.69488084 1.9908217
-0.68469304 0.69478208 1.9945737
-0.6768173 0.69519436 1.9978125
-0.65371335 0.6936217 1.9920001
-0.64601052 0.69550538 1.9936345
-0.63563949 0.6943804 1.99625
-0.62589526 0.69709241 1.9993751
-0.61526084 0.69519478 1.9978127
-0.6055091 0.69409627 1.9946606
-0.59572667 0.69299299 1.995375
-0.58596963 0.69474536 1.9932917
-0.57684684 0.69509262 1.9936392
-0.56220609 0.69567317 1.9991875
-0.55747169 0.69682509 1.9994723
-0.51110786 0.69112927 1.9900001
-0.50513184 0.69463301 1.994536
-0.49446443 0.69485271 1.9948908
-0.48552358 0.69444996 1.9946136
-0.47563231 0.6951527 1.9938124
-0.46816027 0.69138974 1.9907501
-0.45349869 0.69674349 1.9906431
-0.44652578 0.69505346 1.9918056
-0.43943748 0.698268 1.9950001
-0.37961203 0.69621861 1.993
-0.35637307 0.69693184 1.9989167
-0.33228359 0.69652605 1.9951668
-0.31047788 0.69993055 1.9997501
-0.30479535 0.69841701 1.9980001
-0.28485736 0.69449133 1.9910556
-0.27951518 0.69431776 1.9914168
-0.26051503 0.69265008 1.9905001
-0.25492775 0.6955421 1.9928181
-0.24537484 0.6963191 1.9961876
-0.23594217 0.69896573 1.9970001
-0.21249422 0.69565403 1.9952501
-0.20987073 0.69861799 1.9960001
-0.19474563 0.69634968 1.9933751
-0.18388815 0.69590187 1.9948572
-0.16786006 0.69758153 1.9915001
-0.134193 0.69329995 1.9962502
-0.11809627 0.6980958 1.9983751
-0.10437191 0.6962387 1.9947144
-0.48389953 0.70079339 1.9945
-0.47555804 0.70044208 1.9935001
-0.37677088 0.70000285 1.9922501
-0.33193791 0.70219886 1.9985001
-0.31177381 0.70385975 1.999375
-0.30667493 0.70310086 1.9985002
-0.2842997 0.70462185 1.9934444
-0.27979884 0.70446974 1.9934375
-0.2525605 0.70305723 1.9942187
-0.24476023 0.70498109 1.995932
-0.23783034 0.70443279 1.99525
-0.20828493 0.70475864 1.9980835
-0.19778118 0.70429015 1.9967501
-0.18171924 0.70334119 1.9956001
-0.17510356 0.70510113 1.9931731
-0.16886413 0.7034744 1.9906251
-0.11798915 0.70557225 1.9965626
-0.10438386 0.70499921 1.9949378
0.42785805 0.70358199 1.9947501
0.47804898 0.70460099 1.9900001
0.48343948 0.70729524 1.9900001
0.56699222 0.70998961 1.9900001
0.54518956 0.71320063 1.9990001
0.60440809 0.71157169 1.9919168
0.63732064 0.71717572 1.9950001
0.6437695 0.71834403 1.9982501
0.75705504 0.71542341 1.9901252
0.80439895 0.71798456 1.9972501
0.84600639 0.71708661 1.99225
0.85031378 0.71564788 1.9907501
1.0276965 0.71807444 1.9975002
0.76560193 0.72251767 1.9948335
0.77164823 0.72312129 1.9965001
0.78806984 0.72330236 1.9970001
0.79574364 0.72513229 1.9974616
0.80134261 0.72442585 1.9963751
0.82809734 0.72569656 1.9924376
0.83543253 0.72663581 1.9966074
0.84345454 0.7246654 1.9957919
0.86773044 0.7209481 1.9905001
1.0181122 0.72514248 1.9946251
1.0319418 0.72536755 1.9952501
1.0071844 0.73282862 1.9935001
1.0134245 0.7314353 1.9933752
1.0469569 0.73243147 1.9942501
-0.56243455 0.68918645 2
-0.55159932 0.70001799 2
