# .PCD v0.7 - Point Cloud Data file format
VERSION 0.7
FIELDS x y z
SIZE 4 4 4
TYPE F F F
COUNT 1 1 1
WIDTH 1157
HEIGHT 1
VIEWPOINT 0 0 0 1 0 0 0
POINTS 1157
DATA ascii
0.059005123 0.32441029 0.75941676
0.061066765 0.32443407 0.75947225
0.069267012 -0.2525796 0.76547223
0.071309708 -0.25235456 0.76675004
0.064607792 0.2944755 0.76464421
0.054864671 0.30481768 0.76590484
0.055498566 0.31418169 0.76620358
0.06291154 0.31515151 0.76635778
0.05888005 0.32269099 0.76450008
0.062994145 0.32391787 0.76194555
0.059101041 0.33455172 0.76733929
0.062301431 0.33404982 0.76728123
0.064618662 0.34646314 0.76438034
0.054674577 0.35483223 0.76518881
0.064755552 0.35485259 0.76470298
0.054763399 0.3647677 0.76447475
0.06944409 -0.25303671 0.77550006
0.060960427 0.29331085 0.78916675
0.053746179 0.3005648 0.78787506
0.064989045 -0.32463208 0.79704171
0.060744662 -0.31574172 0.79567498
0.06503167 -0.30230865 0.79624999
0.059672624 -0.22193235 0.79575002
0.065099992 -0.22770911 0.79524994
0.063856117 -0.21139097 0.79866672
0.059635129 -0.17226109 0.79525006
0.068977334 -0.17480703 0.79949999
0.059828848 -0.16741878 0.79783338
0.05984135 -0.15341042 0.79800004
0.062804967 -0.15193518 0.79750001
0.05863842 -0.12252274 0.7939167
0.058658276 -0.11485639 0.79661107
0.069350682 -0.11525275 0.79550004
0.058877848 -0.10552327 0.79375005
0.064025797 -0.10384788 0.79376191
0.058353446 -0.074121378 0.79513639
0.064351179 -0.07484328 0.79464287
0.058895461 -0.053619333 0.79658335
0.06207164 -0.050971556 0.79610008
0.060674042 -0.048947334 0.79475003
0.055735424 -0.015091975 0.79422218
0.05699512 -0.0040496592 0.79527277
0.062533781 -0.0032158147 0.79562497
0.05896654 0.00054976525 0.79350007
0.051932555 0.28283551 0.79275006
0.060502265 0.28757611 0.79250002
0.055398725 0.29672959 0.79493183
0.060745988 0.29174989 0.79218757
0.054205537 0.30091336 0.79747736
0.049721569 0.33768624 0.79175001
0.058070809 0.33741659 0.79745007
0.049666617 0.34266651 0.79087502
0.054068986 0.34472957 0.79426473
0.054751385 0.35275164 0.79638404
0.067405313 -0.44374102 0.8046574
0.070751414 -0.44484928 0.80531257
0.066498116 -0.4386301 0.80224997
0.073039666 -0.43223614 0.80764997
0.066218704 -0.42493257 0.80448538
0.073286489 -0.42418838 0.80716676
0.064398021 -0.41659141 0.80360001
0.073487073 -0.41381538 0.80540919
0.069742985 -0.40021157 0.80000001
0.070848636 -0.40142015 0.80025005
0.067965619 -0.39893368 0.80033332
0.069324613 -0.38002846 0.80775005
0.071579039 -0.38038132 0.80850005
0.065502062 -0.37764195 0.80500889
0.073120631 -0.37720454 0.80666673
0.065627009 -0.36419973 0.80749995
0.07093294 -0.36072242 0.80737507
0.067492835 -0.35633767 0.80331677
0.073787838 -0.35556263 0.8021667
0.079507068 -0.34881648 0.800125
0.065148078 -0.32672426 0.80491078
0.071885154 -0.32593182 0.80581254
0.062978774 -0.31440321 0.80703127
0.074015237 -0.31157055 0.80325001
0.066063553 -0.30718273 0.80637503
0.071517467 -0.30817348 0.80290002
0.065244183 -0.27669618 0.80366337
0.071360469 -0.27430984 0.80603129
0.062713034 -0.26499569 0.80713892
0.070113495 -0.26078004 0.80425006
0.066512644 -0.25610864 0.8043077
0.070091702 -0.25961038 0.80400002
0.063298725 -0.22551267 0.80310422
0.071892455 -0.22230691 0.80740631
0.063301727 -0.2144632 0.80527776
0.071642704 -0.21628131 0.805125
0.064894259 -0.20657347 0.80348331
0.064620197 -0.17680104 0.80157894
0.070026316 -0.17018902 0.80325001
0.059991326 -0.16408466 0.80000001
0.064133309 -0.16221488 0.80146438
0.070124388 -0.16770461 0.80437499
0.063117869 -0.15689075 0.80255002
0.064953618 -0.12644269 0.80783659
0.065707505 -0.11308992 0.80502284
0.070075363 -0.11534828 0.8038125
0.063845262 -0.10765404 0.80685288
0.059469275 -0.072158381 0.80762506
0.067755379 -0.072673321 0.80730009
0.059110302 -0.064661212 0.80275005
0.067615964 -0.063384876 0.80368757
0.058926221 -0.059037477 0.80025005
0.062961385 -0.05475051 0.80441064
0.057714324 -0.022952881 0.8049286
0.068234704 -0.023315225 0.80137503
0.057340167 -0.015140645 0.80403572
0.071468368 -0.011463345 0.80725002
0.05836628 -0.004543006 0.80500007
0.063949622 -0.0050946139 0.80652273
0.056111977 0.28752705 0.80307412
0.060160056 0.28894156 0.80225003
0.055620287 0.295118 0.80418825
0.060237724 0.29420835 0.80328572
0.056842733 0.30031288 0.80143756
0.054386444 0.33842471 0.80194122
0.055414367 0.34558937 0.80369258
0.054733198 0.35090104 0.8012833
0.069277927 -0.43071172 0.8136251
0.071944684 -0.43052372 0.81265002
0.067248061 -0.42768991 0.81575
0.07399939 -0.42756554 0.81387508
0.067205355 -0.41354087 0.81520319
0.072094597 -0.41070613 0.81437504
0.068890601 -0.40854901 0.81556249
0.071528785 -0.40923631 0.81418753
0.068558902 -0.38077664 0.81599998
0.071754627 -0.38225684 0.81798339
0.066707402 -0.37596634 0.81700015
0.073673561 -0.37176406 0.8136251
0.067541733 -0.36723056 0.81463468
0.072156176 -0.36788008 0.81590015
0.066880614 -0.33058229 0.81800002
0.065309331 -0.32857963 0.81617862
0.073976964 -0.32495949 0.81678128
0.0673007 -0.31392387 0.81742114
0.072227031 -0.3164224 0.8182025
0.067118168 -0.30867171 0.81280005
0.068526797 -0.28062391 0.81125003
0.066178158 -0.2777012 0.81359613
0.070986882 -0.27529782 0.81175005
0.06716378 -0.26197109 0.81472504
0.070732459 -0.26637849 0.81135005
0.067000911 -0.2591345 0.81274998
0.065768704 -0.23144162 0.81793755
0.071442969 -0.23021917 0.81950003
0.063770935 -0.22873838 0.81718755
0.071426511 -0.22707701 0.81091672
0.065712146 -0.21346667 0.8134445
0.070695899 -0.2179635 0.81516671
0.065728754 -0.20906785 0.81062508
0.065719567 -0.18036513 0.8173334
0.065461524 -0.17616792 0.81579691
0.065185212 -0.16366151 0.81591678
0.070182852 -0.16772529 0.81775004
0.064156614 -0.1582561 0.81506258
0.065667309 -0.12448625 0.81415623
0.063562952 -0.11360297 0.81610006
0.063626647 -0.10935199 0.81181252
0.064405516 -0.073214896 0.81762224
0.064770199 -0.064935707 0.81639397
0.063154012 -0.057559703 0.81448537
0.059276395 -0.02257674 0.81400001
0.063482687 -0.023231421 0.8154723
0.058947217 -0.016003164 0.81553566
0.062470678 -0.014943101 0.81827247
0.07233157 -0.014920304 0.81700003
0.059257656 -0.0050869817 0.81114292
0.062642612 -0.0073386999 0.81550002
0.067882001 -0.43181151 0.82681251
0.072248489 -0.4327665 0.8296001
0.068630204 -0.42604882 0.8256923
0.072138228 -0.42416868 0.82821548
0.068741553 -0.41651309 0.82037503
0.072150141 -0.41839519 0.82763892
0.07279741 -0.38077322 0.82046443
0.06913083 -0.37529626 0.82028574
0.07268735 -0.37627026 0.8213613
0.068413578 -0.33232778 0.82310718
0.072671823 -0.33225065 0.82644439
0.067036353 -0.32482097 0.82398337
0.073056966 -0.32480189 0.82374996
0.067211971 -0.31868872 0.82081819
0.070963442 -0.31932402 0.82037508
0.069039382 -0.28098541 0.82260001
0.071070775 -0.28108796 0.82290012
0.067604922 -0.27545497 0.82651794
0.070947684 -0.27547663 0.82744122
0.067670338 -0.26803875 0.82683825
0.071062557 -0.26960209 0.82800007
0.067941815 -0.23127326 0.82078129
0.070429593 -0.2310905 0.82062507
0.066902883 -0.22558685 0.82307839
0.071109422 -0.22573982 0.82244122
0.066999227 -0.21777751 0.82139289
0.070526153 -0.21972528 0.82175004
0.066762261 -0.17450038 0.82401896
0.070772894 -0.17304175 0.82462507
0.066327922 -0.16651206 0.8239668
0.065979168 -0.12337874 0.82160646
0.070547603 -0.12074068 0.82200003
0.066009991 -0.11701248 0.82166034
0.070533305 -0.11849088 0.82183337
0.067592598 -0.022564037 0.82666665
0.066476278 -0.018456468 0.82675004
0.069002524 -0.43442836 0.83020002
0.070674241 -0.43546042 0.83002502
0.068647966 -0.332376 0.83135003
0.071345709 -0.33258277 0.83130354
0.069006674 -0.32991239 0.83025002
0.071234196 -0.32906386 0.8300001
0.068994507 -0.022080842 0.83693755
0.067308128 -0.015511923 0.83356255
0.072685272 -0.019741584 0.83375007
0.068784572 -0.0090242177 0.83437502
0.071642786 -0.021402357 0.85500002
0.069732033 -0.015009348 0.85287505
0.071872808 -0.014036948 0.86475003
0.072417706 -0.0099324901 0.86425006
0.072100624 -0.1925348 1.3875
0.072574794 -0.22310896 1.396625
0.072651446 -0.21482615 1.3981001
0.072602078 -0.20522407 1.39715
0.07241673 -0.1965204 1.3935834
0.073165886 -0.23159866 1.4080001
0.071843833 -0.22508532 1.4070001
0.071246244 -0.21535456 1.40775
0.07130529 -0.20504411 1.4089168
0.069881402 -0.2179997 1.41875
0.071467668 -0.20550895 1.4121251
0.072081313 -0.23041488 1.4242501
0.074458502 -0.24248113 1.432875
0.074335083 -0.23917323 1.4305
0.07056687 -0.22531001 1.4326668
0.074496374 -0.24636216 1.4461669
0.073175743 -0.23880768 1.445875
0.074757814 -0.25246635 1.4512501
0.073502608 -0.24675666 1.4523335
0.07189472 -0.23712605 1.459625
0.07392858 -0.25411975 1.4607501
0.056862231 0.70478219 1.4628334
0.075074151 -0.26227957 1.4755001
0.073421918 -0.25572866 1.4732857
0.072684862 -0.24672459 1.4756666
0.070750095 -0.23894878 1.4770001
0.056663811 0.70481402 1.4748409
0.071354851 -0.25510907 1.489625
0.0546549 0.7030189 1.4865696
0.075603507 -0.27100593 1.493875
0.073582016 -0.26595533 1.4939167
0.071738064 -0.2544525 1.4976251
0.071489565 -0.24649695 1.4924376
0.049220998 0.68759066 1.4914166
0.053494941 0.68786782 1.4928184
0.049215496 0.69155204 1.49125
0.055670738 0.6952858 1.4914328
0.058255479 0.70105928 1.4900001
0.07639581 -0.27486315 1.5095
0.049793046 0.68945372 1.5087501
0.05765947 0.68986183 1.5007501
0.077165663 -0.28190583 1.5166
0.08075133 -0.28397578 1.5145
0.075200841 -0.27739727 1.5163751
0.048073996 0.68693906 1.5190001
0.054386392 0.68545562 1.5185193
0.048066083 0.69402343 1.5187501
0.055094644 0.69250727 1.5166591
0.078321896 -0.29047829 1.5271251
0.081404485 -0.29040694 1.5267501
0.075739302 -0.28609613 1.5271875
0.081391156 -0.28829262 1.5265001
0.070774436 -0.27069017 1.5205001
0.070797712 -0.26769015 1.521
0.04712655 0.67679507 1.5216252
0.054320451 0.67655426 1.5210834
0.04742974 0.6810239 1.5203334
0.053252354 0.68018878 1.5200001
0.047913402 0.67826301 1.5358334
0.054854937 0.67801225 1.5360501
0.044444077 0.6809988 1.53575
0.076036304 -0.29467788 1.5437083
0.081252322 -0.29672772 1.5435001
0.072591819 -0.28543487 1.5445833
0.044849232 0.66832244 1.5497501
0.046894252 0.67593783 1.5479794
0.044711769 0.68091691 1.5450001
0.077176914 -0.30231559 1.5583
0.073434696 -0.29473183 1.5550001
0.048337698 0.6659683 1.5522187
0.054953795 0.6666615 1.5551251
0.048538182 0.67221105 1.5502501
0.055470377 0.67486 1.55321
0.05624561 0.68148243 1.5528439
0.075073183 -0.30447647 1.5672501
0.072613038 -0.2967315 1.5600001
0.058184415 0.65994459 1.5697501
0.049616858 0.66547167 1.5677501
0.055347499 0.6640144 1.5668215
0.077464059 -0.31086713 1.5727501
0.07560768 -0.30724344 1.5721073
0.056609027 0.65843296 1.5732501
0.049735539 0.66387087 1.5715001
0.053444933 0.66102797 1.5710626
0.076442555 -0.31516939 1.5869
0.082367577 -0.31759861 1.5850834
0.056477059 0.65846068 1.5815001
0.051771395 0.66239882 1.5817001
0.047978207 0.67226332 1.5837501
0.074055992 -0.3155528 1.5910001
0.072166651 -0.3059082 1.5968751
0.072051786 -0.29462853 1.5943333
0.058044244 0.65873253 1.5951251
0.053933725 0.66206825 1.5934063
0.077544063 -0.32317799 1.6075001
0.072624221 -0.31546283 1.6070001
0.057214413 0.65599906 1.6059532
0.052030984 0.66258174 1.6048214
0.075743362 -0.32670787 1.6155312
0.072906673 -0.31996578 1.61325
0.058495224 0.64866036 1.6175833
0.049061216 0.65893316 1.6195
0.053973045 0.65398329 1.6147344
0.051001478 0.66004187 1.6115
0.077327035 -0.33304605 1.6220001
0.049171034 0.65711176 1.6231251
0.052387502 0.65171134 1.620625
0.049186185 0.6650086 1.623625
0.049205113 0.67186147 1.6242501
0.082608305 -0.34141389 1.6322502
0.075909555 -0.33724976 1.6308125
0.08260408 -0.33918664 1.6321667
0.057228595 0.64914775 1.6335001
0.049515627 0.65729034 1.6345
0.054283876 0.6529007 1.6336666
0.072113551 -0.33071741 1.6450001
0.072129995 -0.32410908 1.645375
0.072212189 -0.31778812 1.6472501
0.05891528 0.63996989 1.6497501
0.05659036 0.64668047 1.6471539
0.049865901 0.65524995 1.6460626
0.05399663 0.65216285 1.644594
0.047699787 0.66393387 1.64825
0.047685318 0.67265826 1.64775
0.076596126 -0.34666285 1.6552002
0.082663767 -0.34851849 1.6555001
0.072497137 -0.33807424 1.6537501
0.057441566 0.63596767 1.6541365
0.053077891 0.64445746 1.653625
0.048210245 0.65410823 1.6548573
0.050068498 0.6500845 1.6527501
0.079815403 -0.35303763 1.6662501
0.048271343 0.62672311 1.6680001
0.055323161 0.626104 1.6674024
0.048172954 0.63445985 1.6646
0.053378265 0.6341933 1.6629167
0.048089027 0.64460385 1.6617
0.050892111 0.64222956 1.661375
0.046039797 0.65873587 1.669
0.04600532 0.66275859 1.6677501
0.07671079 -0.35320276 1.6723751
0.073373891 -0.34782821 1.67375
0.059665222 0.62097102 1.67075
0.055168062 0.61611378 1.6889585
0.048893549 0.62679613 1.6895001
0.054554839 0.62384421 1.6877031
0.061093379 0.62223339 1.6852001
0.047151495 0.63330376 1.6885626
0.04643634 0.6438961 1.6833751
0.04637542 0.65443176 1.6811668
0.0464053 0.6776315 1.68225
0.077786684 -0.36046004 1.6958752
0.074502729 -0.35778144 1.6995001
0.055899005 0.60724103 1.6937503
0.049117833 0.61588109 1.6972501
0.053539872 0.61146766 1.6917502
0.048987601 0.62227106 1.69275
0.046619087 0.63270199 1.6900001
0.046888046 0.68928343 1.6997501
0.083920836 -0.37174687 1.7037501
0.078606255 -0.36618572 1.7011251
0.072296508 -0.35134292 1.70175
0.072300047 -0.34598351 1.7018334
0.072307132 -0.3375681 1.702
0.0563289 0.6075455 1.7067502
0.051605918 0.61007893 1.7035
0.046986893 0.62615889 1.7033335
0.044815425 0.65582049 1.7085
0.044756409 0.66881776 1.7062501
0.044703946 0.67649359 1.70425
0.046898387 0.69634128 1.700125
0.078706451 -0.37284452 1.7158751
0.07289128 -0.33564919 1.7157501
0.05845898 0.60670286 1.7184376
0.045007791 0.63540059 1.7158333
0.044980682 0.64430779 1.7148001
0.044968441 0.6541934 1.7143334
0.044971172 0.66622221 1.7144376
0.075784989 -0.37096107 1.7287501
0.074465416 -0.3643769 1.7252501
0.073156804 -0.35785523 1.7220001
0.049949847 0.58658898 1.7260001
0.054340109 0.58578706 1.7262188
0.049978789 0.59043604 1.7270001
0.052357081 0.59205544 1.7283126
0.055746831 0.60830438 1.7246251
0.053040165 0.61160946 1.7251667
0.083499439 -0.38275513 1.7334
0.078386255 -0.37924013 1.7345001
0.047984559 0.58999926 1.7395
0.059141077 0.58730549 1.7385001
0.047888011 0.59351176 1.7360001
0.055996187 0.59617144 1.7322031
0.047970768 0.6016022 1.7390001
0.054566283 0.6048488 1.731974
0.050729413 0.61466789 1.7326875
0.050137956 0.6204648 1.7325001
0.045543332 0.63591248 1.73625
0.083779119 -0.39188266 1.7490001
0.078792989 -0.38475001 1.7435001
0.074075513 -0.36825117 1.7436252
0.047998354 0.58781302 1.7400001
0.05377508 0.58502245 1.7417145
0.062200751 0.58132952 1.7417501
0.047998354 0.60430402 1.7400001
0.043482509 0.64610791 1.7479374
0.043446746 0.65503728 1.7465
0.043466959 0.66480428 1.7473125
0.043482505 0.67451024 1.7479376
0.045667931 0.70129675 1.7410001
0.047998354 0.71974081 1.7400001
0.079109333 -0.39221874 1.7505001
0.082642034 -0.39447612 1.7500001
0.077641778 -0.38488111 1.7530833
0.072315469 -0.36300924 1.75825
0.072202362 -0.35530964 1.7555001
0.048536263 0.58963603 1.7595
0.052043714 0.58769298 1.7572501
0.060322732 0.58124781 1.7557501
0.046900973 0.59539562 1.75775
0.046102379 0.60445499 1.7575626
0.047985174 0.61489415 1.7568001
0.048501786 0.62492675 1.7582501
0.043644205 0.68651652 1.7544376
0.043637466 0.69472617 1.7541667
0.043739047 0.70110363 1.7582501
0.079719432 -0.40002027 1.7640001
0.077902824 -0.39571488 1.7634376
0.077198766 -0.38861102 1.7610002
0.075015463 -0.37890065 1.7657501
0.072428569 -0.36357564 1.761
0.072737046 -0.35315192 1.7685001
0.047563445 0.57680261 1.7676251
0.054740164 0.57436836 1.7675002
0.061510075 0.57542956 1.7670833
0.04735766 0.58454567 1.7649169
0.051073067 0.58484221 1.7648127
0.060477339 0.58035427 1.7602501
0.046258122 0.59336436 1.7635001
0.043844771 0.64552671 1.7625
0.046304028 0.72301519 1.7652501
0.048736259 0.81692034 1.7667501
0.076702096 -0.40179345 1.7771251
0.083495654 -0.40447763 1.7765833
0.075485438 -0.39450613 1.7768126
0.075415514 -0.38572893 1.7751666
0.073114917 -0.37544778 1.7776875
0.047808811 0.57617009 1.7767501
0.054995678 0.57344341 1.7757502
0.044267669 0.58308703 1.7795001
0.044267669 0.60838503 1.7795001
0.045717049 0.61592633 1.7735001
0.046441741 0.62328672 1.7705001
0.042962689 0.64663666 1.7753751
0.041728146 0.65454102 1.7739999
0.041709043 0.66504645 1.7731875
0.041697279 0.67445815 1.7726876
0.041681107 0.68139505 1.7720001
0.039403033 0.76172531 1.7775
0.046407614 0.57474762 1.7859322
0.053538691 0.57248342 1.7832501
0.044289436 0.58819485 1.780375
0.044323638 0.59588659 1.7817501
0.044298768 0.6039896 1.7807499
0.044321571 0.61636448 1.7816668
0.044491559 0.6247803 1.7885001
0.04437083 0.6443907 1.7835833
0.041875161 0.68818295 1.7802501
0.041992772 0.69495088 1.7852501
0.042045698 0.70187664 1.7875001
0.046690933 0.73387653 1.7800001
0.039458454 0.76038665 1.7800001
0.039597001 0.77031195 1.7862501
0.04754056 0.82304907 1.7817501
0.078579664 -0.41133705 1.7925001
0.081018716 -0.41139442 1.7927501
0.07531666 -0.40593764 1.791875
0.073680446 -0.39532739 1.7914376
0.073676161 -0.38681588 1.7913336
0.071571492 -0.37638 1.7994169
0.045044951 0.47633296 1.7912
0.048727695 0.55723518 1.7958335
0.055836271 0.55438906 1.7950169
0.063158691 0.5541656 1.7940938
0.046255615 0.56486976 1.7943473
0.054573908 0.56318241 1.7947708
0.061671253 0.5602172 1.7950001
0.04323424 0.57373637 1.7938572
0.059108101 0.57594311 1.7910001
0.042139787 0.60520917 1.7915001
0.042107444 0.61565328 1.7901251
0.042749751 0.62587363 1.791625
0.044628378 0.63277406 1.794
0.043531541 0.64788914 1.7988751
0.042304441 0.7195884 1.7985001
0.042333845 0.77857053 1.7997501
0.042327963 0.78089881 1.7995001
0.072454765 -0.70523477 1.8093002
0.074731641 -0.41387615 1.8071251
0.082702249 -0.41496781 1.8030001
0.071965933 -0.40540066 1.8093334
0.068711139 -0.3915914 1.8096668
0.071947701 -0.39427841 1.8088751
0.068452433 -0.38503212 1.809
0.071747176 -0.38463303 1.8038334
0.0715947 -0.37162757 1.8000001
0.071738884 -0.36626568 1.8036251
0.047302987 0.51642656 1.8033333
0.047254898 0.52443945 1.8015001
0.044974856 0.55446416 1.807946
0.055215169 0.55208153 1.80655
0.058676619 0.56827873 1.8025836
0.057065777 0.57373881 1.803125
0.041535616 0.63628143 1.8048126
0.043420646 0.64343226 1.8015001
0.041233268 0.72583044 1.8049376
0.041309111 0.73450804 1.8082502
0.042483967 0.74600166 1.806182
0.045024991 0.75342304 1.801771
0.042360306 0.77539957 1.8008751
0.039957229 0.7870816 1.8025001
0.042477917 0.78733289 1.8058751
0.041887194 0.79474843 1.8067501
0.049722433 0.83833158 1.8025001
0.072970174 -0.71427244 1.8140001
0.073988214 -0.7060287 1.8138751
0.066091321 -0.44506735 1.8162498
0.069905981 -0.41014242 1.8195001
0.068782553 -0.40392318 1.8159001
0.071992449 -0.40064913 1.8100001
0.066357009 -0.39517793 1.8123889
0.064646997 -0.38844961 1.81025
0.069608226 -0.37773234 1.8117502
0.053954203 0.14366375 1.8134501
0.053658165 0.47836357 1.8117501
0.049993683 0.48465204 1.8123335
0.050005179 0.48967203 1.8127501
0.04753032 0.49928281 1.812
0.050016675 0.49469432 1.8131667
0.047497533 0.50506735 1.8107501
0.047487698 0.51231635 1.8103751
0.050172988 0.52579135 1.8188335
0.046899252 0.53649253 1.8113126
0.050163798 0.53185004 1.8185
0.045548555 0.54443574 1.8112252
0.050198276 0.54823101 1.8197501
0.05019138 0.55061918 1.8195001
0.040123485 0.74256933 1.8100001
0.037734468 0.80884933 1.8130001
0.040993717 0.80446249 1.8123335
0.047648359 0.82762688 1.8165001
0.04388018 0.84395921 1.8132813
0.075019717 -0.71985483 1.8240001
0.074328922 -0.70186847 1.8221875
0.071436688 -0.63326871 1.8271251
0.071372814 -0.62528884 1.8254999
0.070256576 -0.61893177 1.8286251
0.070059665 -0.55917853 1.8235
0.070011646 -0.54275835 1.8222501
0.070101932 -0.53481042 1.8246
0.070165321 -0.52416801 1.8262501
0.070242167 -0.5173164 1.8282502
0.070030853 -0.46023288 1.8227501
0.07258907 -0.4323869 1.825
0.066810384 -0.42450538 1.8214824
0.074949376 -0.42384452 1.8222752
0.068552896 -0.41469932 1.8209645
0.072439916 -0.41793451 1.8212501
0.06627807 -0.38467085 1.8213751
0.066030741 -0.37365428 1.8239547
0.070002042 -0.37616971 1.8220001
0.065074436 -0.36512402 1.8222752
0.070117295 -0.35701886 1.8250002
0.064100064 -0.32076836 1.8296251
0.070299797 -0.32079029 1.8297501
0.064038664 -0.31427562 1.8278754
0.070234954 -0.31430796 1.8280625
0.063455299 -0.30447555 1.8263571
0.062816985 -0.29455185 1.8283544
0.062844954 -0.28477803 1.8291669
0.064023823 -0.2746169 1.8274686
0.06400343 -0.26463491 1.8268906
0.064055406 -0.2549476 1.8283752
0.064922847 -0.24809243 1.8295418
0.061235346 -0.18361339 1.8255001
0.06135869 -0.17510276 1.8218126
0.061322942 -0.16513801 1.8207501
0.061400823 -0.15547377 1.8230628
0.061453491 -0.14572605 1.824625
0.061448295 -0.13583361 1.8244687
0.061409585 -0.12587264 1.8233126
0.061025869 -0.11687336 1.8241252
0.060246702 -0.10748538 1.8255001
0.06117823 -0.093548395 1.8237
0.061088085 -0.085118666 1.8228753
0.061262839 -0.073887162 1.8241428
0.061485324 -0.064233571 1.8255626
0.061147496 -0.055239249 1.8277917
0.057803918 0.014866751 1.8264376
0.057865236 0.022309002 1.8283751
0.057894509 0.13501237 1.8293002
0.057623915 0.14547423 1.82075
0.055568255 0.48563632 1.8240939
0.060209572 0.48416704 1.8243752
0.054780636 0.4936471 1.8264446
0.051267672 0.50385195 1.8285834
0.050463788 0.5176928 1.829375
0.050425854 0.52225363 1.8280001
0.050312065 0.53836197 1.8238751
0.050899431 0.54544932 1.8228126
0.055187777 0.55252069 1.8217083
0.042916015 0.81150973 1.8245001
0.046657067 0.85536414 1.8258334
0.051660493 0.85632062 1.8278751
0.078063667 -0.8222093 1.8375001
0.078042425 -0.72249824 1.8370001
0.07799463 -0.71459925 1.835875
0.075523548 -0.70231384 1.8362501
0.07262297 -0.69467103 1.8384001
0.072464675 -0.66298622 1.8375001
0.072705023 -0.65503114 1.833591
0.072892301 -0.64509964 1.8326253
0.074098349 -0.63610941 1.83175
0.072857551 -0.62123024 1.83175
0.072039738 -0.61726832 1.8362001
0.072870016 -0.58436048 1.8377502
0.072985865 -0.57511926 1.8349724
0.072014861 -0.56580168 1.8339688
0.074193247 -0.53461945 1.8385001
0.07436493 -0.52515024 1.8383439
0.071184471 -0.51469547 1.8365626
0.067858651 -0.46968901 1.8307501
0.071305685 -0.46481016 1.8343334
0.073011681 -0.45478606 1.8356252
0.073016651 -0.4448736 1.8357501
0.073056422 -0.43889931 1.83675
0.081796214 -0.42788363 1.8375001
0.067840122 -0.35061449 1.8302501
0.071597718 -0.35204536 1.8312502
0.064164639 -0.34464762 1.8314689
0.071245849 -0.34573272 1.8328334
0.064193651 -0.33488441 1.8323129
0.07039585 -0.33487299 1.8322501
0.06414666 -0.32596067 1.8309584
0.07035742 -0.32601252 1.8312501
0.067904986 -0.30382186 1.8320001
0.070482291 -0.30796215 1.8345001
0.068145916 -0.28374183 1.8385
0.070583142 -0.27606747 1.8371251
0.070535123 -0.26717973 1.835875
0.070611954 -0.25751561 1.8378751
0.063640818 -0.24361911 1.8306749
0.063330673 -0.23592064 1.8321927
0.063212529 -0.22548479 1.8342309
0.062724948 -0.21545213 1.8322047
0.063054234 -0.2049647 1.8352334
0.063318595 -0.19458009 1.8357
0.064090155 -0.18606612 1.8343929
0.065640226 -0.17417336 1.8380626
0.065696023 -0.16685027 1.8396251
0.065700486 -0.15814351 1.8397501
0.060403462 -0.10033184 1.8302501
0.062912405 -0.096661031 1.831125
0.062873758 -0.08049646 1.83
0.062890939 -0.075561687 1.8305001
0.060665421 -0.044767968 1.8381875
0.060626231 -0.034792885 1.8370001
0.06054166 -0.024808263 1.8344376
0.06058085 -0.014881463 1.8356252
0.060675733 -0.0074379705 1.8385
0.057948314 0.027299237 1.8310001
0.058057103 0.034802526 1.8344376
0.058100622 0.044769485 1.8358126
0.058065016 0.054677583 1.8346877
0.058011606 0.064554676 1.8329999
0.058003698 0.07447201 1.8327501
0.058005676 0.084400743 1.8328125
0.058057103 0.094411701 1.8344376
0.058138207 0.10449135 1.8370001
0.058088753 0.11434102 1.8354375
0.057962157 0.12401028 1.8314376
0.057940401 0.14255564 1.8307501
0.06065511 0.14684257 1.8378751
0.063140027 0.1505653 1.8377501
0.061706141 0.4887042 1.8321252
0.056692876 0.49818438 1.8305001
0.060461216 0.4936319 1.832
0.053058255 0.50641263 1.8333751
0.050487921 0.51298475 1.83025
0.053234499 0.5292753 1.8395001
0.054586936 0.53604823 1.8371071
0.055406317 0.54468036 1.8352501
0.062549293 0.5455817 1.8366389
0.056803338 0.55130118 1.8340627
0.063050225 0.55162054 1.8351251
0.041866504 0.81884503 1.8326252
0.045617219 0.82307237 1.8337501
0.078307942 -0.88966906 1.84325
0.075722449 -0.84126168 1.8410834
0.080724068 -0.83393449 1.8414167
0.074904859 -0.73472011 1.8482776
0.07841415 -0.72843862 1.8457501
0.078467257 -0.71142691 1.8470001
0.075877823 -0.69488513 1.8448217
0.071844503 -0.68827927 1.84395
0.078573465 -0.6472826 1.8495001
0.071374595 -0.61269277 1.8415
0.070866495 -0.60432661 1.8444999
0.071411036 -0.59429777 1.8424376
0.076017097 -0.57177299 1.84825
0.076027386 -0.56934756 1.8485001
0.073279165 -0.55497992 1.84235
0.074331366 -0.54388797 1.8436501
0.07845398 -0.53503662 1.8466876
0.078276083 -0.52758545 1.8425001
0.072409876 -0.51397604 1.8414167
0.068303443 -0.50520223 1.8427501
0.070943333 -0.50873041 1.8465
0.073046178 -0.47379243 1.8443127
0.076376393 -0.46505094 1.8448
0.076964535 -0.45684004 1.8469502
0.077178791 -0.43489176 1.8461251
0.083346128 -0.43070346 1.8442501
0.073344789 -0.34326088 1.844
0.07397671 -0.3343704 1.8472999
0.074602582 -0.32589057 1.8486431
0.073511347 -0.31526375 1.8481876
0.068275645 -0.30049238 1.8420001
0.068294182 -0.29433718 1.8425002
0.068312712 -0.28817892 1.8430001
0.071020171 -0.28278154 1.8485
0.070717618 -0.25167197 1.840625
0.070825681 -0.24456811 1.8434377
0.068312712 -0.23577791 1.8430001
0.070847288 -0.23840207 1.8440001
0.06570942 -0.16190186 1.84
0.065718345 -0.15320309 1.8402501
0.065776378 -0.14460951 1.8418751
0.06579423 -0.13467218 1.8423752
0.0657987 -0.12470177 1.8425001
0.063980944 -0.1148199 1.8440626
0.063427761 -0.10495105 1.8461251
0.066035286 -0.092604011 1.8491251
0.066010736 -0.085061185 1.8484375
0.066019662 -0.075061247 1.8486875
0.065954931 -0.06498573 1.8468751
0.064902857 -0.054689676 1.8454002
0.063479304 -0.044995576 1.8476251
0.060749993 -0.0024627179 1.8407501
0.06080981 0.0050192182 1.8425626
0.060822181 0.015000883 1.8429376
0.060901254 0.02376608 1.8453335
0.061020203 0.065116256 1.8489375
0.061038762 0.072648689 1.8495001
0.061009891 0.12767825 1.8486251
0.060931507 0.13501258 1.8462501
0.06089025 0.14241622 1.845
0.063535132 0.49702787 1.8492501
0.05351666 0.51830983 1.8492501
0.053498574 0.52564371 1.8486252
0.057250187 0.53561854 1.8485001
0.078849606 -0.91090047 1.8560001
0.077566683 -0.90808165 1.8553751
0.081359722 -0.90332109 1.8559166
0.078669056 -0.82357138 1.8517501
0.078750484 -0.81521899 1.8536668
0.073318996 -0.75199193 1.8591876
0.075121135 -0.74410295 1.853639
0.078594707 -0.73763031 1.8500001
0.078801811 -0.70692647 1.8548751
0.078018755 -0.69298977 1.8511877
0.074263595 -0.68426943 1.8513333
0.074312471 -0.67468363 1.8525418
0.078249827 -0.66582054 1.8537003
0.078623027 -0.65520906 1.8506666
0.078700922 -0.64414954 1.8525001
0.077173091 -0.6344772 1.8560001
0.076412968 -0.62380207 1.8578751
0.073692821 -0.61330122 1.8527501
0.073702767 -0.60460323 1.853
0.075372465 -0.59579539 1.8529167
0.078642502 -0.58394134 1.851125
0.076279297 -0.56746745 1.854625
0.07744059 -0.52539587 1.852375
0.067907684 -0.50344521 1.8546667
0.073363498 -0.48348966 1.8571001
0.077966683 -0.47588977 1.8549169
0.081429131 -0.471522 1.8575001
0.081341453 -0.46598959 1.8555001
0.07698267 -0.45242977 1.8514167
0.076212466 -0.44403726 1.853
0.076428391 -0.32201296 1.8582501
0.077696741 -0.31828183 1.8585
0.07115785 -0.3046442 1.8520836
0.072273567 -0.29438299 1.8565626
0.073322207 -0.28469014 1.8560501
0.073782317 -0.27498642 1.855
0.073745027 -0.26606086 1.8540626
0.073802203 -0.25496116 1.8555
0.073876783 -0.2439028 1.8573751
0.068794571 -0.23241475 1.8560001
0.072218038 -0.23683701 1.8578334
0.068741284 -0.22595805 1.8545625
0.06867642 -0.21571019 1.8528125
0.068688005 -0.20570937 1.8531251
0.068713486 -0.19574687 1.8538126
0.068678737 -0.18561327 1.852875
0.06867642 -0.17557183 1.8528125
0.068653256 -0.16548288 1.8521876
0.071389973 -0.16601264 1.8581251
0.068667158 -0.15548082 1.8525627
0.068782985 -0.145694 1.8556876
0.068769082 -0.13561833 1.8553126
0.068738967 -0.12551403 1.8545001
0.066379011 -0.11699397 1.8587501
0.066133492 -0.097756885 1.8518751
0.066191524 -0.051415861 1.8535001
0.066231698 -0.047679733 1.8546251
0.063588813 -0.035052497 1.8508127
0.063644648 -0.025050502 1.8524376
0.06370692 -0.015033401 1.8542501
0.063732684 -0.0049932566 1.855
0.063749865 0.0050537372 1.8555001
0.063702621 0.015091055 1.8541251
0.063219406 0.025893617 1.8546501
0.061160468 0.035158567 1.8531876
0.061240908 0.045252685 1.8556252
0.061125398 0.055195786 1.8521252
0.061067645 0.077693567 1.8503752
0.061082084 0.085229643 1.8508126
0.061123338 0.095318362 1.8520626
0.061174903 0.10543683 1.8536252
0.061143965 0.11541598 1.8526876
0.061071768 0.12279673 1.8505001
0.063578084 0.49986932 1.8505001
0.058628753 0.50668097 1.8525001
0.063981928 0.50558722 1.8549252
0.056699414 0.51312536 1.8549502
0.064089455 0.51559073 1.8587273
0.058850292 0.53502989 1.8595001
0.052292787 0.87181306 1.8502501
0.081966154 -0.92018032 1.8697501
0.078136384 -0.91981119 1.8690001
0.081933267 -0.91728073 1.8690001
0.076849967 -0.86137897 1.8685001
0.077456087 -0.85792983 1.8678751
0.08182916 -0.85419691 1.8666251
0.08165928 -0.83350772 1.8627501
0.079274446 -0.81348729 1.8660001
0.078162082 -0.80505878 1.8652859
0.078062125 -0.79501766 1.8628931
0.076044776 -0.78473914 1.8620179
0.075321697 -0.77516812 1.8619531
0.082851954 -0.77473783 1.8652502
0.075314477 -0.76501369 1.8617812
0.08281219 -0.76535189 1.8643572
0.075551912 -0.75655055 1.8614252
0.081711337 -0.75454384 1.8639375
0.079104513 -0.74997801 1.8620001
0.081700385 -0.74434978 1.8636875
0.081626408 -0.73485225 1.8620001
0.08171846 -0.72557962 1.8641001
0.079327554 -0.69141722 1.8672501
0.081904039 -0.69687819 1.8683333
0.079316929 -0.68500531 1.8670001
0.079306312 -0.67859477 1.8667501
0.081966154 -0.65563577 1.8697501
0.076880813 -0.62255937 1.8692501
0.076901376 -0.61892867 1.8697501
0.077632181 -0.6028499 1.8670001
0.079417825 -0.59729087 1.869375
0.07669916 -0.56427872 1.8648335
0.076712869 -0.55680364 1.8651668
0.08167024 -0.53471607 1.863
0.078171216 -0.52459925 1.8638
0.081725039 -0.5287652 1.8642501
0.074114129 -0.5158875 1.8633126
0.068152077 -0.50105661 1.8613335
0.071550861 -0.50426054 1.8623126
0.067165628 -0.49534318 1.8606071
0.072162285 -0.49404302 1.8618126
0.076110996 -0.48546323 1.8627501
0.081801757 -0.48125905 1.8660001
0.083356895 -0.47504285 1.8630834
0.082895651 -0.46388689 1.8621876
0.079260282 -0.4533864 1.8656669
0.081790797 -0.45719531 1.8657501
0.079320468 -0.44614759 1.8670834
0.082751602 -0.44224992 1.8684168
0.076695733 -0.31682745 1.8647501
0.074197464 -0.30558014 1.8654376
0.076817557 -0.29582587 1.8676667
0.081966154 -0.29236168 1.8697501
0.077742077 -0.28897342 1.8696667
0.081966154 -0.28983018 1.8697501
0.076901376 -0.25185728 1.8697501
0.076849967 -0.24536479 1.8685001
0.073740564 -0.23475984 1.86665
0.071750164 -0.22879784 1.8675001
0.071785383 -0.19349484 1.8684168
0.07169494 -0.18440819 1.8660625
0.073158287 -0.1748838 1.8665
0.075438574 -0.16502722 1.8693573
0.071577273 -0.15761606 1.863
0.071836613 -0.14047009 1.8697501
0.074893527 -0.13289095 1.8670002
0.075752154 -0.12404317 1.8663669
0.068154849 -0.11593401 1.8659999
0.075653225 -0.11471438 1.8681
0.066611134 -0.1060394 1.8652501
0.069239363 -0.073316097 1.868
0.069160596 -0.065654613 1.8658751
0.069213882 -0.055588946 1.8673127
0.0679309 -0.045468729 1.86675
0.066649079 -0.035345208 1.8663126
0.066771843 -0.029082892 1.8697501
0.068004675 -0.01388771 1.8688334
0.075816669 -0.014893269 1.8680001
0.067934528 -0.0050260066 1.8669064
0.075514346 -0.0050253635 1.8667661
0.067940287 0.0050855689 1.8670627
0.07554055 0.0050866744 1.8674065
0.067931272 0.015194579 1.8668127
0.075552151 0.015201934 1.8676877
0.067903981 0.025294527 1.8660626
0.066597141 0.0353777 1.8648542
0.066559173 0.045451429 1.8637918
0.066537015 0.055526864 1.8631669
0.066527002 0.065607354 1.8628751
0.066561006 0.075735666 1.8638334
0.066626184 0.085914396 1.8656665
0.066660993 0.096067794 1.8666459
0.066605933 0.10608867 1.8651042
0.066565126 0.11611902 1.8639585
0.066572525 0.12496604 1.8641667
0.066568784 0.13379213 1.8640627
0.066537701 0.14381957 1.8631878
0.066521853 0.15009148 1.8627501
0.057614274 0.51761508 1.8602501
0.057649974 0.52423745 1.8614063
0.062247079 0.52402931 1.8606668
0.057627693 0.53159255 1.8606876
0.061393548 0.53146756 1.8602501
0.079470932 -0.92441046 1.870625
0.084713191 -0.92251796 1.8745
0.084509835 -0.91777152 1.8700001
0.084799819 -0.85486859 1.8764168
0.084783807 -0.84581155 1.8760626
0.082267538 -0.83336407 1.8766251
0.082325622 -0.82505178 1.8779501
0.08290714 -0.81356317 1.8795999
0.085811019 -0.8046394 1.8783183
0.085065275 -0.7963019 1.8776044
0.085640788 -0.78659636 1.8789285
0.087391652 -0.77655727 1.8775001
0.084871374 -0.76150787 1.8780001
0.087149106 -0.75454241 1.8777502
0.087395869 -0.74481481 1.8775835
0.086595945 -0.73717338 1.878625
0.082251102 -0.72015303 1.8762501
0.084311917 -0.71326762 1.8768501
0.086302869 -0.70427066 1.8759001
0.086037554 -0.69435531 1.8778273
0.082382604 -0.68695509 1.87925
0.082097664 -0.67316908 1.87275
0.081988066 -0.66340792 1.8702501
0.076928794 -0.61408418 1.8704168
0.078673698 -0.60691965 1.87175
0.082382604 -0.59535742 1.87925
0.079614319 -0.5759294 1.8740001
0.083073713 -0.5438512 1.8756666
0.084927857 -0.53556406 1.87925
0.082152463 -0.52899337 1.8740001
0.07740885 -0.49451438 1.8743438
0.084014721 -0.49362317 1.8777919
0.07953997 -0.48794079 1.8722501
0.086481243 -0.48555267 1.8760834
0.086261697 -0.4541449 1.8750501
0.078546166 -0.31412417 1.8744643
0.078656659 -0.3054938 1.8771073
0.079529345 -0.29651672 1.8720001
0.078409791 -0.28317952 1.8712145
0.078345329 -0.27399534 1.874
0.078443676 -0.26417691 1.8763437
0.07840278 -0.25641525 1.8753126
0.079858601 -0.24175148 1.8797501
0.077312671 -0.23793387 1.8797501
0.071862221 -0.2240901 1.8704168
0.07185822 -0.21521497 1.8703127
0.073462144 -0.20453998 1.8723001
0.076852426 -0.19605485 1.8780384
0.077137247 -0.18533994 1.8754791
0.078235678 -0.17479898 1.8713751
0.078948461 -0.16380379 1.8702501
0.076249667 -0.15417519 1.8715
0.075986415 -0.1447064 1.8721499
0.077576369 -0.13737918 1.8707501
0.069350563 -0.11143161 1.8710001
0.073141731 -0.11015064 1.8707501
0.069392264 -0.10389473 1.8721251
0.075437717 -0.10358705 1.8711503
0.069372185 -0.094995759 1.8715835
0.075712554 -0.094999731 1.8716668
0.069334351 -0.086079672 1.8705626
0.075757749 -0.086181067 1.8727812
0.069313496 -0.07845816 1.8700001
0.075786248 -0.076068647 1.8735001
0.075734384 -0.065877549 1.8722186
0.075694107 -0.055707518 1.8712032
0.069327399 -0.043020584 1.8703752
0.075691298 -0.045571052 1.8711252
0.069392264 -0.035456099 1.872125
0.075720668 -0.035451803 1.8718748
0.068290763 -0.024769669 1.8717145
0.075016722 -0.025989754 1.8713464
0.068065323 -0.018964387 1.8705001
0.071855821 -0.018961854 1.8702501
0.096875213 -0.98713458 1.888875
0.087740757 -0.96086377 1.8850001
0.091157012 -0.96354383 1.8852501
0.085845746 -0.95342809 1.8854375
0.09187679 -0.95322722 1.88605
0.085686736 -0.94557619 1.8879644
0.091714047 -0.94703388 1.8879584
0.079996668 -0.9343496 1.8830001
0.083416283 -0.93200564 1.8834168
0.085193813 -0.92895854 1.8850001
0.091895871 -0.9143545 1.8829584
0.07762114 -0.89046448 1.8872501
0.081887774 -0.89358813 1.8846072
0.077713683 -0.88512993 1.8895001
0.081531875 -0.88491046 1.8890314
0.095987096 -0.88510442 1.8840001
0.075891621 -0.87372911 1.8866668
0.081719108 -0.87573826 1.88745
0.08250317 -0.86632895 1.8820001
0.086480677 -0.82193446 1.885375
0.086299695 -0.81511474 1.8814167
0.093989484 -0.814228 1.8823127
0.090923108 -0.78200674 1.8804168
0.086481526 -0.73386365 1.885375
0.086670652 -0.72012222 1.8895001
0.087066256 -0.71645856 1.8888334
0.082426451 -0.6822294 1.8802501
0.087833852 -0.67445982 1.8870001
0.090341687 -0.67027128 1.886
0.086452857 -0.66599929 1.8847502
0.086198784 -0.65476716 1.8868183
0.079938255 -0.64196664 1.8816252
0.080184303 -0.61711061 1.8874168
0.082547002 -0.60419416 1.8830001
0.082448363 -0.59965205 1.8807501
0.085374296 -0.58399183 1.8891252
0.084508382 -0.57417786 1.8860893
0.08425837 -0.56442457 1.8845896
0.079879835 -0.55621505 1.8802501
0.084657341 -0.55621094 1.8845501
0.086595692 -0.54636198 1.883893
0.086467996 -0.53463823 1.8811073
0.079277366 -0.52270937 1.8810625
0.085030913 -0.52474695 1.8815211
0.076455101 -0.51509726 1.8855001
0.083910592 -0.5155127 1.8850158
0.077162474 -0.5046249 1.883
0.08438997 -0.50525957 1.8834822
0.086686306 -0.4969027 1.8805834
0.079869218 -0.25196522 1.8800001
0.079869218 -0.24687442 1.8800001
0.077906154 -0.23320882 1.8804166
0.077388264 -0.22415406 1.8815836
0.077384621 -0.21395509 1.8815002
0.077023782 -0.20524484 1.8804687
0.096146375 -0.95037746 1.8997501
0.087117836 -0.94168282 1.8936501
0.091924019 -0.94465035 1.8975502
0.086965352 -0.93817133 1.8958751
0.093834817 -0.92475772 1.8920625
0.095905982 -0.91720957 1.8950001
0.086146176 -0.90379727 1.8948501
0.085797817 -0.89705747 1.8985001
0.085602924 -0.84372526 1.8941876
0.086404093 -0.83500826 1.8976877
0.086920165 -0.82863784 1.894875
0.094791345 -0.82761478 1.8984063
0.087131739 -0.73149818 1.8902501
0.092593394 -0.73166877 1.8902502
0.086708874 -0.72555882 1.8903335
0.092247874 -0.72634786 1.8901668
0.087283172 -0.69276392 1.8972499
0.091663577 -0.6925593 1.89575
0.086849414 -0.68723214 1.8990002
0.085507855 -0.64939165 1.8921251
0.083387345 -0.63330352 1.8947814
0.084364586 -0.62541807 1.8951668
0.085542083 -0.61503869 1.8928336
0.086740822 -0.60421044 1.8910313
0.087170072 -0.59483892 1.8910834
0.086278357 -0.58817858 1.8902501
0.052287858 0.89698362 1.8955001
0.096298203 -0.96218306 1.9027501
0.097231977 -0.95601624 1.9041667
0.096432507 -0.94458151 1.9053541
0.088450596 -0.93776345 1.9002501
0.095773123 -0.93584841 1.9050835
0.096601859 -0.91869915 1.9087501
0.0858882 -0.89285618 1.9005001
0.093696482 -0.89367867 1.9022501
0.085998356 -0.886271 1.9029377
0.093671858 -0.88829386 1.9017501
0.087076977 -0.87514079 1.9039501
0.094747454 -0.87399346 1.9061251
0.088566959 -0.86686343 1.9027501
0.093926869 -0.86432612 1.9017003
0.088526234 -0.85487634 1.9018751
0.094381645 -0.85421979 1.9012321
0.088727549 -0.8452031 1.9062001
0.088846236 -0.8385849 1.9087501
0.087473363 -0.65191489 1.9070001
0.086135782 -0.64511549 1.9059792
0.085465632 -0.63648462 1.9025501
0.097063676 -1.0360469 1.9178751
0.088927694 -0.91178131 1.9105
0.095768325 -0.91430718 1.9108639
0.088939331 -0.90543306 1.91075
0.09410131 -0.90659589 1.910475
0.088953882 -0.89523101 1.9110626
0.091542222 -0.89523101 1.9110626
0.088962607 -0.88884991 1.9112501
0.093281031 -0.88802606 1.9113334
0.091491319 -0.87533838 1.9100001
0.094859548 -0.8432067 1.9108572
0.089428075 -0.89089924 1.9212501
0.092030212 -0.89089924 1.9212501
0.089428075 -0.88699734 1.9212501
0.093075916 -0.88522243 1.9213501
