# .PCD v0.7 - Point Cloud Data file format
VERSION 0.7
FIELDS x y z
SIZE 4 4 4
TYPE F F F
COUNT 1 1 1
WIDTH 1387
HEIGHT 1
VIEWPOINT 0 0 0 1 0 0 0
POINTS 1387
DATA ascii
-0.046032608 -0.1548619 0.74629927
0.22741491 -0.15492442 0.74378365
0.23533396 -0.15254158 0.74114615
0.24330916 -0.15483457 0.74124992
-0.14214151 -0.14496782 0.74361867
-0.13521981 -0.14510362 0.74430519
-0.12500155 -0.14494735 0.74350524
-0.11494236 -0.14496161 0.74358034
-0.10500424 -0.14514551 0.74452502
-0.095044851 -0.14533563 0.74549264
-0.084952071 -0.14534049 0.74552232
-0.075830549 -0.14521453 0.74617851
-0.062653229 -0.14519855 0.74620295
-0.054669809 -0.14536995 0.7456724
-0.046598826 -0.14497101 0.74630868
0.22774222 -0.14493762 0.74403948
0.23536275 -0.14485976 0.74305999
0.24347697 -0.14482775 0.74181163
-0.13505268 -0.13486072 0.74338996
-0.1150609 -0.13503143 0.74433976
-0.10496666 -0.13501592 0.74424994
-0.094939031 -0.13509159 0.74466515
-0.084877379 -0.13512839 0.74486279
-0.075752653 -0.13505028 0.74443442
-0.062472407 -0.13493499 0.74507272
-0.054621283 -0.13515757 0.74402618
-0.046808135 -0.13488294 0.74647832
0.22800627 -0.13602345 0.74553663
0.23496321 -0.13479254 0.74324542
0.24354738 -0.13509917 0.74193662
-0.094894312 -0.12495019 0.74430978
-0.084799044 -0.12492502 0.74416518
-0.062823191 -0.1248901 0.74437952
0.2285993 -0.12418261 0.74382573
0.23526789 -0.12487674 0.74326938
-0.062947579 -0.11474812 0.74476922
0.22767529 -0.11487277 0.7435351
-0.063619219 -0.10479653 0.74507374
-0.05468598 -0.10501205 0.74586987
-0.047061577 -0.10490812 0.74513006
-0.075848736 -0.094871223 0.74596912
-0.063991785 -0.094965734 0.74705476
-0.30521965 -0.080405354 0.74710721
-0.064717345 -0.087314799 0.74858916
-0.47064325 -0.072544664 0.74950004
-0.44004276 -0.078607097 0.74925005
-0.32560253 -0.079429656 0.74744451
-0.048819445 -0.070456311 0.74887502
-0.047104068 -0.064182878 0.74806994
-0.37191838 -0.056425069 0.74912506
-0.047503076 -0.056764405 0.74839169
0.23835495 -0.051474072 0.74771434
0.42384103 -0.053256493 0.74699998
-0.046267934 -0.042664878 0.74817866
0.34556052 -0.044632353 0.74762505
0.23855455 -0.034806136 0.7478857
0.39281368 -0.019730086 0.74775004
-0.54401416 -0.37154865 0.75090528
-0.53717077 -0.37116018 0.75073332
-0.5229339 -0.37125972 0.75184095
-0.50892329 -0.37058303 0.75093752
-0.49262667 -0.37110567 0.75171602
-0.47429115 -0.37089005 0.75123006
-0.21548405 -0.37012109 0.75000006
-0.54381138 -0.36815152 0.75119358
-0.53486514 -0.36771438 0.75082684
-0.50642526 -0.36781591 0.75062507
-0.49521971 -0.36775315 0.75177842
-0.44708595 -0.35996655 0.75000006
-0.41191015 -0.35928014 0.75068754
-0.40578726 -0.35911059 0.75033337
-0.39484265 -0.35947752 0.75110006
-0.38445184 -0.35927415 0.75067508
-0.37510115 -0.35816938 0.75098073
-0.36496699 -0.35818985 0.7511
-0.27512515 -0.35579509 0.75146049
-0.24142729 -0.34936258 0.75012505
-0.23597392 -0.34909114 0.75032145
-0.22462623 -0.349812 0.75000006
-0.21316841 -0.34851202 0.75034368
-0.20643355 -0.34768203 0.75033331
-0.19453846 -0.3453013 0.75052351
-0.18517448 -0.34504372 0.75066972
-0.17672218 -0.34671265 0.75065547
-0.16441309 -0.34804761 0.75103784
-0.15451525 -0.34716189 0.75111043
-0.12178529 -0.34537965 0.75086999
-0.11607657 -0.34596381 0.75136751
-0.094658159 -0.34473467 0.7515744
-0.19312428 -0.33620369 0.75036454
-0.18660598 -0.33781451 0.75009525
-0.17942323 -0.33965749 0.75000006
-0.12181919 -0.33474952 0.75031048
-0.11537662 -0.33432844 0.75042963
-0.10477704 -0.33523765 0.7504397
-0.094878159 -0.33542177 0.75117463
-0.084969439 -0.3352344 0.75074655
-0.075330138 -0.33468714 0.75119656
0.38405436 -0.33603087 0.75000006
0.39855874 -0.33532229 0.75014585
-0.1971997 -0.32087159 0.75000006
-0.12160213 -0.32514599 0.75049156
-0.11587073 -0.32621485 0.75058007
-0.10461061 -0.32689098 0.7502647
-0.09466587 -0.32514909 0.75049776
-0.084589623 -0.32496873 0.75065428
-0.074873507 -0.32526261 0.75195718
-0.045882683 -0.32510477 0.75202227
-0.12123594 -0.31580928 0.75032145
-0.11695342 -0.31455857 0.75044173
-0.10052959 -0.31900993 0.75000006
-0.093002349 -0.31585708 0.75047082
-0.086485282 -0.31545126 0.7503404
-0.076646641 -0.31541184 0.75021684
-0.066762462 -0.31481448 0.75235808
-0.04537506 -0.31452236 0.7517761
-0.16215467 -0.30919385 0.75000006
-0.12050696 -0.30919385 0.75000006
-0.11724188 -0.30839601 0.75000006
-0.090720274 -0.30855122 0.75008339
-0.088014536 -0.30822414 0.75011116
-0.076232307 -0.30696389 0.75006485
-0.05518524 -0.30510095 0.75269848
-0.045264982 -0.30506498 0.75245112
-0.12550309 -0.29657975 0.75003266
-0.096127808 -0.29116952 0.75000006
-0.063164227 -0.29536885 0.75358605
-0.055554159 -0.29602748 0.75117248
-0.044489872 -0.29666364 0.75165361
-0.095628768 -0.28812164 0.75006944
-0.081906632 -0.28411996 0.75000006
-0.062299561 -0.28548449 0.75163043
-0.058626901 -0.2863051 0.75038165
0.24481539 -0.28489688 0.75269353
-0.065664515 -0.27554658 0.75241673
-0.043258037 -0.27443478 0.75063545
0.23490664 -0.2748245 0.7530368
0.24416633 -0.27493626 0.75227797
-0.070732862 -0.2670525 0.75000006
-0.065519519 -0.26387003 0.75301224
-0.059559088 -0.26045206 0.75000006
-0.043027565 -0.26579082 0.75130773
0.22845909 -0.26552573 0.75445241
0.23485467 -0.26509696 0.75232935
0.24400491 -0.26523662 0.75227189
-0.070732862 -0.25029752 0.75000006
-0.064590193 -0.25484875 0.75482666
-0.058623824 -0.2549054 0.75057745
-0.041604921 -0.25843877 0.75600004
0.22751355 -0.25461328 0.75425398
0.23510498 -0.25492123 0.75273353
0.24360463 -0.2550047 0.75181794
-0.07123889 -0.24455775 0.75026309
-0.065720484 -0.2455408 0.75441563
-0.058786184 -0.24420691 0.75039577
-0.042410344 -0.2403136 0.75212502
0.22840202 -0.24521619 0.7551645
0.23487315 -0.24514246 0.75244492
0.24368027 -0.24570511 0.75100446
-0.070877522 -0.23626757 0.75018758
-0.064989813 -0.23491736 0.75182766
-0.057286207 -0.23482403 0.75016367
-0.042512041 -0.23630033 0.7539286
0.22769694 -0.23460941 0.75490183
0.23483357 -0.23491071 0.75147957
0.24333157 -0.23283093 0.75102448
-0.52371407 -0.22355445 0.75074989
-0.51537836 -0.22416082 0.75122565
-0.50541019 -0.22584103 0.75489706
-0.4947179 -0.22529632 0.7562108
-0.48553798 -0.22447662 0.75436038
-0.4742066 -0.22432359 0.75280416
-0.46527356 -0.22488438 0.7541492
-0.45517942 -0.22490253 0.75470597
-0.44526863 -0.22415048 0.7530911
-0.4337804 -0.22238439 0.75190312
-0.42517224 -0.22374341 0.75493294
-0.41478828 -0.22351862 0.75298268
-0.40531686 -0.22332895 0.75388968
-0.39446956 -0.22319645 0.75328434
-0.38515148 -0.22307475 0.75409913
-0.37560493 -0.22251943 0.75178754
-0.36348444 -0.222259 0.75444376
-0.35478097 -0.22271727 0.75655389
-0.34483913 -0.22199471 0.75537503
-0.33538914 -0.22226851 0.75436062
-0.32493389 -0.22245534 0.75369817
-0.3148416 -0.22244331 0.75291187
-0.30537301 -0.22269547 0.75680929
-0.29511303 -0.22277662 0.75647348
-0.28500056 -0.22207534 0.75541079
-0.27480248 -0.22212709 0.75562489
-0.2653071 -0.22224417 0.75562078
-0.25535813 -0.22181544 0.75527149
-0.24528095 -0.22165647 0.75492871
-0.23465215 -0.22155058 0.75516331
-0.22538146 -0.22156279 0.75661111
-0.21504462 -0.22217593 0.75724453
-0.19603688 -0.22122899 0.75515753
-0.18565613 -0.22073565 0.75381583
-0.17441317 -0.22033903 0.75500005
-0.16685382 -0.2202599 0.75285006
-0.13320547 -0.22063518 0.75255561
-0.1246727 -0.22171658 0.75108987
-0.11552718 -0.22120596 0.75109488
-0.10563044 -0.22087468 0.75098908
-0.097240746 -0.22005372 0.75075006
-0.083334833 -0.22055098 0.75028127
-0.073995464 -0.22342233 0.75047916
-0.065821737 -0.22606388 0.75330925
-0.05525855 -0.22681786 0.75324613
-0.046666835 -0.22523701 0.75493753
0.22764824 -0.22486737 0.7526378
0.23495102 -0.22492278 0.75057048
0.24404319 -0.22488897 0.75119394
-0.49127316 -0.21881846 0.75000006
-0.44325274 -0.21918313 0.75125003
-0.43456727 -0.21956715 0.75157148
-0.4130201 -0.21960862 0.75270838
-0.40801126 -0.21965724 0.75287503
-0.39719105 -0.21987607 0.75362498
-0.38614735 -0.21865474 0.75242859
-0.37562945 -0.21854238 0.75206834
-0.36347243 -0.21887295 0.75402385
-0.35525489 -0.21937639 0.75727624
-0.34443343 -0.21909174 0.7564218
-0.3347587 -0.21890323 0.75555003
-0.32480109 -0.21887378 0.75486112
-0.31421646 -0.21796463 0.75307703
-0.30533206 -0.2178486 0.75602794
-0.29528594 -0.21812372 0.7563448
-0.28446186 -0.21773247 0.75494391
-0.27534056 -0.21813053 0.75717854
-0.26460114 -0.21820949 0.75749993
-0.25502667 -0.2181704 0.75655562
-0.24498253 -0.21722931 0.7547605
-0.23548803 -0.21692242 0.75674534
-0.2247967 -0.21688336 0.75742006
-0.21500221 -0.21679033 0.75807399
-0.19440615 -0.21713029 0.75662929
-0.18495648 -0.2177027 0.75764114
-0.17479731 -0.21657996 0.75693482
-0.16543978 -0.21652825 0.75486469
-0.13688426 -0.21734208 0.75579554
-0.12441199 -0.21924201 0.75345248
-0.11522181 -0.21650805 0.7573989
-0.10481443 -0.21802162 0.75554508
-0.094862454 -0.21625909 0.75395823
-0.084554471 -0.21607359 0.75636005
-0.076445907 -0.21767142 0.75567794
-0.064196423 -0.21344849 0.75075001
-0.051432703 -0.21374117 0.75000006
-0.046995141 -0.21337223 0.75231254
0.22726738 -0.21619307 0.75621426
0.23537919 -0.21685317 0.75035638
0.24489148 -0.2149815 0.7507444
-0.11056967 -0.20857349 0.75150001
-0.10542376 -0.20858324 0.75040483
-0.090573214 -0.20991588 0.75450003
-0.074817255 -0.20669465 0.75229001
-0.065931074 -0.20817226 0.75316668
-0.043730717 -0.20557976 0.75735009
0.22815567 -0.20700359 0.75506526
0.23560753 -0.20438682 0.75363493
0.24591939 -0.20562045 0.75251156
-0.064638071 -0.195463 0.75000006
0.22829251 -0.19320294 0.75357819
0.2348377 -0.19679284 0.75465286
0.24739176 -0.19774455 0.75293756
0.2555542 -0.19434464 0.75427079
0.26489365 -0.1941662 0.75467348
0.27508166 -0.19374494 0.75483084
0.28489077 -0.19364242 0.75339288
0.29361606 -0.19310041 0.75151056
0.30698922 -0.19243838 0.75090516
0.31575748 -0.19354676 0.75076348
0.32490093 -0.19380672 0.75218338
0.33459893 -0.19262061 0.75219297
0.34124041 -0.19210604 0.75092316
0.37692955 -0.19278337 0.75228584
0.38497645 -0.19341892 0.75375342
0.39112827 -0.19193476 0.75165284
0.40630853 -0.19311394 0.75068569
0.4106445 -0.19410408 0.75041676
0.43813834 -0.19228286 0.75046873
0.44527492 -0.19381586 0.75295925
0.45369533 -0.19412054 0.75332379
0.46587697 -0.19429494 0.75230491
0.47217447 -0.19288664 0.75113231
0.48758993 -0.19353697 0.75100005
0.49368972 -0.19366364 0.75488234
-0.066507369 -0.18051687 0.75975001
-0.043745153 -0.18513691 0.75760001
0.22591472 -0.18418688 0.75684619
0.24654268 -0.18437892 0.75321156
0.25440031 -0.18812364 0.75361115
0.26446649 -0.1891989 0.75255001
0.27445281 -0.18893558 0.75231254
0.28615338 -0.1890845 0.7525
0.29265735 -0.18952806 0.75062507
0.30683023 -0.18908383 0.75047505
0.32701388 -0.18921649 0.75208336
0.33499125 -0.18929823 0.7518667
0.34066528 -0.18937027 0.75000006
0.37591127 -0.18921955 0.75228578
0.38623583 -0.18891229 0.75330007
0.39115477 -0.1892087 0.75137508
0.44503981 -0.18931861 0.75060004
0.45163012 -0.18968588 0.75125003
0.46664459 -0.18920727 0.7512334
0.47244701 -0.18946496 0.75037503
0.48828122 -0.18949652 0.75050002
0.49374411 -0.18979886 0.75575006
-0.071416616 -0.17172174 0.75725001
-0.066384822 -0.17710355 0.75835001
-0.04355653 -0.17617065 0.75433332
0.22618918 -0.17533667 0.75630373
-0.071717806 -0.16512187 0.75637501
0.22696975 -0.16496201 0.75270963
-0.072316669 -0.15684344 0.75593752
-0.066075146 -0.15456733 0.75481254
0.22584398 -0.15509188 0.75488234
-0.072415657 -0.14397782 0.75697225
-0.065905541 -0.14167613 0.75287503
-0.043633521 -0.14816509 0.75566673
0.2258143 -0.14446178 0.75638288
-0.072647907 -0.13724998 0.75940007
-0.065916486 -0.138133 0.75300002
0.22637984 -0.13479608 0.75555485
-0.072649501 -0.12182974 0.75941676
-0.067336366 -0.12049699 0.75750005
-0.0445191 -0.12289182 0.75333339
0.2275591 -0.12521607 0.75598073
-0.067511037 -0.11536799 0.75485003
-0.044672996 -0.11461397 0.75593752
0.22519049 -0.11502887 0.75528169
-0.071332179 -0.10444771 0.75635427
-0.069142289 -0.10541005 0.75592506
0.22644098 -0.10479897 0.75576788
-0.071337879 -0.095344536 0.7513383
-0.06937819 -0.095524557 0.75114065
-0.045830909 -0.095369101 0.75575006
0.22783497 -0.095756747 0.75555003
-0.46744427 -0.081035405 0.75508332
-0.45519531 -0.081728108 0.75501674
-0.44658816 -0.080761068 0.75516671
-0.31315714 -0.080757052 0.75037503
-0.29485723 -0.081170373 0.75818747
-0.28837347 -0.080931939 0.75200009
-0.070815243 -0.081122108 0.75242859
-0.065979019 -0.082802802 0.75370467
-0.0554698 -0.081033558 0.75803339
-0.047493119 -0.085568383 0.75520003
0.22735295 -0.084347591 0.75445008
-0.47114059 -0.073720239 0.75585127
-0.46917418 -0.078700714 0.75456816
-0.44449338 -0.078735657 0.75537497
-0.33316952 -0.075115636 0.75636506
-0.32431895 -0.078714669 0.75625008
-0.31365478 -0.079738431 0.75035006
-0.3011201 -0.079708695 0.75975001
-0.29176477 -0.07902927 0.75816679
-0.2879689 -0.077799171 0.75665915
-0.18257856 -0.074151397 0.75408006
-0.17950062 -0.076538242 0.75891668
-0.14663392 -0.074971154 0.75691682
-0.071364492 -0.077145599 0.75217104
-0.067470379 -0.0742708 0.75423533
-0.055385243 -0.072102509 0.75550002
-0.04885976 -0.071936846 0.75733334
0.22707307 -0.076017126 0.75494647
-0.47088659 -0.066473842 0.75385231
-0.46886867 -0.062423781 0.75573277
-0.44093233 -0.061118219 0.75250006
-0.43983698 -0.061544895 0.75150001
-0.33354166 -0.065170005 0.75499338
-0.18439169 -0.064582013 0.75599188
-0.17292823 -0.064061679 0.7571429
-0.15042223 -0.062028665 0.75741673
-0.14563546 -0.065680012 0.75622225
-0.045381296 -0.067750268 0.7507084
0.22857884 -0.065400258 0.75719565
0.23341861 -0.061039831 0.75446671
0.24313399 -0.060657877 0.75310719
-0.46570244 -0.058954917 0.75283754
-0.45488957 -0.057024479 0.75321436
-0.44148803 -0.057802118 0.75310004
-0.43898422 -0.058006991 0.75178128
-0.39230889 -0.055993851 0.75008821
-0.38516161 -0.056297492 0.75068134
-0.3769671 -0.056420963 0.7505343
-0.33112839 -0.058246654 0.75358331
-0.32548141 -0.054125112 0.75614291
-0.28182313 -0.054870557 0.75766677
-0.24517897 -0.053559974 0.75036532
-0.19190681 -0.055661589 0.75501853
-0.18961906 -0.053459596 0.7569167
-0.17310266 -0.056253001 0.75734383
-0.14519174 -0.052054297 0.75158334
-0.050416905 -0.050253075 0.75000006
-0.04597149 -0.052749965 0.7518484
0.23610999 -0.054355793 0.75530106
0.24362575 -0.057196442 0.75305432
0.30838674 -0.052933175 0.75931251
0.31646514 -0.054681551 0.75659221
0.32117382 -0.056070477 0.75312507
0.34660792 -0.053688664 0.75187504
0.42813951 -0.053376362 0.75109375
0.4350566 -0.053914808 0.7558859
0.44363654 -0.053787187 0.7544862
0.45380223 -0.054095063 0.75401384
0.46669081 -0.053029317 0.75477123
0.47050533 -0.050342411 0.75133342
-0.050766706 -0.048909962 0.75016671
-0.044956025 -0.046621934 0.75237215
0.22978251 -0.047293127 0.75954169
0.23344527 -0.044842917 0.75442392
0.30759364 -0.042100444 0.75862503
0.34761664 -0.04161761 0.75684381
0.35012367 -0.044719715 0.75950003
0.42832077 -0.045315463 0.75230557
0.43234673 -0.047151513 0.75712508
0.46919292 -0.042553212 0.75541669
0.47103387 -0.045670006 0.75401765
-0.54089344 -0.033455443 0.75475001
-0.53600889 -0.034022074 0.75412506
-0.52416855 -0.033624664 0.75360006
-0.51561105 -0.032547798 0.75653583
-0.50921977 -0.031000726 0.75100005
-0.3926878 -0.030946868 0.75630009
-0.382734 -0.031830404 0.75692856
-0.3774085 -0.031813052 0.75649995
-0.3550719 -0.032337282 0.75850004
-0.33195204 -0.031774104 0.75731254
-0.3254489 -0.031640265 0.75412506
-0.25020397 -0.030273378 0.75825006
-0.24413875 -0.03022347 0.75700003
-0.23409276 -0.030289346 0.75865
-0.22286701 -0.030186871 0.75608331
-0.16797268 -0.030458182 0.75331253
-0.041838527 -0.033846185 0.75406665
0.22969428 -0.031855524 0.75925004
0.23397997 -0.035024129 0.75482625
0.30913496 -0.039018884 0.75862503
0.31525362 -0.036484916 0.75665623
0.32110953 -0.036469158 0.75900006
0.33536807 -0.036687765 0.75355887
0.34530529 -0.03892665 0.75683337
0.4294506 -0.038194519 0.75250006
0.43534392 -0.036943957 0.75578851
0.44416946 -0.036788568 0.75291663
0.45373785 -0.036776789 0.75476563
0.46690664 -0.038829613 0.75404549
-0.51286274 -0.027988039 0.756625
-0.50828719 -0.02846319 0.75112504
-0.3979333 -0.025188938 0.75572962
-0.24414301 -0.029136397 0.75538898
-0.2326531 -0.029299788 0.75962502
-0.22269812 -0.029208181 0.75725007
-0.218242 -0.029465618 0.75075001
-0.20251633 -0.029155329 0.75154167
-0.19543295 -0.027904093 0.75729543
-0.18531698 -0.027687458 0.75773442
-0.17138743 -0.028605124 0.754875
-0.16448534 -0.026952669 0.75660294
-0.15437521 -0.026185006 0.75441253
-0.14703266 -0.026687518 0.75362509
-0.04178378 -0.029285325 0.75925004
0.2293191 -0.02352763 0.75763893
0.23218369 -0.025869317 0.7533319
0.3458595 -0.020811843 0.75025004
0.35752708 -0.020446785 0.75562501
0.36246762 -0.021296702 0.75144452
0.42245561 -0.021263301 0.75275004
0.4376421 -0.020020332 0.75875008
0.45683429 -0.021212697 0.75136369
0.4625845 -0.021254342 0.75152504
0.47613138 -0.021323133 0.75395
0.48525381 -0.021387499 0.75623333
0.49408504 -0.021535393 0.75783932
-0.39844787 -0.01537454 0.75471634
0.22669615 -0.015675519 0.75271529
0.23009658 -0.019802647 0.75050002
0.32910046 -0.01822626 0.7514286
0.33625793 -0.017988272 0.75326926
0.34494987 -0.01847839 0.75221103
0.35446203 -0.018907802 0.75537503
0.36434326 -0.019274805 0.75286847
0.37419239 -0.018958407 0.75111544
0.38510329 -0.018860715 0.75346428
0.39488244 -0.019066077 0.75294644
0.40747052 -0.01885635 0.75332505
0.41461375 -0.018695289 0.75573915
0.42084438 -0.019209728 0.75718755
-0.3987602 -0.0050994153 0.75546592
-0.043537285 -0.0035553749 0.75400007
0.22524726 -0.0039700544 0.75552005
-0.39868414 0.0053172493 0.75540489
-0.043752372 0.0051433654 0.75772506
0.22573152 0.0045060944 0.75559217
-0.39809182 0.015176951 0.75379503
-0.04435483 0.015974166 0.75577503
0.22330734 0.01277592 0.75435001
-0.40077707 0.027520983 0.75558698
-0.39910406 0.022611605 0.75532502
-0.044456597 0.024168216 0.756625
0.22316715 0.026955247 0.75665009
-0.40095848 0.033767805 0.75382209
-0.39956835 0.038037192 0.75467861
-0.044649113 0.035285726 0.75711364
0.22298343 0.035504844 0.75775009
-0.39954278 0.045183036 0.75485855
-0.044543523 0.04440118 0.75664586
0.22150211 0.045655113 0.75598389
-0.5209837 0.058092799 0.75925004
-0.51892751 0.057919972 0.75700009
-0.39964291 0.052618895 0.75718743
-0.04463828 0.055231355 0.75534999
0.22576307 0.051822867 0.75696057
0.23097403 0.053221822 0.75337505
0.24344866 0.05660551 0.75312501
-0.51341617 0.062459573 0.75753844
-0.50905615 0.062642977 0.75833338
-0.40635231 0.061475851 0.75845587
-0.15048844 0.064133711 0.75775003
0.2541678 0.063705996 0.75798219
0.29500997 0.064439572 0.75326669
0.30278119 0.061555106 0.75380003
-0.083944812 0.070942529 0.75925004
-0.070565283 0.070930928 0.75912505
-0.066603132 0.070715964 0.75591677
0.25536117 0.074749805 0.75596732
0.29315156 0.073761731 0.75688332
-0.071550995 -0.13453923 0.76218992
-0.071588106 -0.12490977 0.76353896
-0.068747699 -0.1259494 0.76326096
-0.071788892 -0.11517049 0.76198226
-0.069364473 -0.11540534 0.76207149
-0.04514946 -0.11222127 0.76400006
0.22373544 -0.11476985 0.76284099
-0.071675971 -0.10957574 0.76000005
0.22499134 -0.10386464 0.76236671
-0.04621445 -0.092624575 0.76449996
0.22671334 -0.094663836 0.76373935
-0.46609342 -0.081150405 0.76325005
-0.45778459 -0.081297114 0.76017511
-0.32065022 -0.080089018 0.76337504
-0.31515568 -0.080269992 0.76510006
-0.30839512 -0.080128357 0.76375008
-0.29823658 -0.08058732 0.76158333
-0.063973509 -0.081120104 0.76142502
-0.050590929 -0.081305064 0.76025003
-0.048468411 -0.083225541 0.76507145
-0.47079822 -0.073607527 0.76440912
-0.46865106 -0.078031681 0.76627272
-0.44765684 -0.073772624 0.7622143
-0.33316097 -0.074388348 0.76664114
-0.32454696 -0.078167416 0.76264286
-0.31515568 -0.079234093 0.7651
-0.30386835 -0.07924585 0.7616607
-0.29494363 -0.07782127 0.76550007
-0.2894372 -0.071644448 0.76150006
-0.18102403 -0.071607582 0.76572913
-0.17726429 -0.074355297 0.76438636
-0.15017436 -0.070569083 0.76662505
-0.14694852 -0.072738752 0.76360482
-0.067488849 -0.07750643 0.76366681
-0.047223452 -0.071886472 0.76408339
-0.47093505 -0.067159288 0.76569438
-0.46771127 -0.062200218 0.76584816
-0.44817701 -0.065075442 0.76310003
-0.33407965 -0.065496296 0.76525766
-0.29076752 -0.065758139 0.76500005
-0.28885838 -0.064549811 0.76300001
-0.18433417 -0.06408377 0.76534998
-0.173695 -0.068976186 0.76050007
-0.15103762 -0.066943005 0.76662499
-0.14736903 -0.066955067 0.76552498
-0.044153195 -0.063143067 0.76466674
0.22707014 -0.065472238 0.76435971
0.23147917 -0.060957786 0.76417863
-0.46520284 -0.059658565 0.76646876
-0.45327887 -0.058447223 0.76416665
-0.44914609 -0.058489356 0.76475006
-0.33232936 -0.058438081 0.76408339
-0.32346794 -0.054259092 0.76108336
-0.31470573 -0.053651933 0.76304173
-0.28611293 -0.056240015 0.76530004
-0.19106062 -0.055322278 0.76326197
-0.18827814 -0.055946913 0.76667249
-0.15200771 -0.057501007 0.76540005
-0.14669976 -0.059004191 0.76475
-0.044013653 -0.056752969 0.76225001
0.22933757 -0.050746877 0.7635501
0.30845526 -0.050973367 0.76075006
0.31298092 -0.053588372 0.76194233
0.32629269 -0.055836067 0.76345003
0.33523002 -0.056810074 0.76305562
0.34558907 -0.056451373 0.76400012
0.44481081 -0.051938504 0.76491672
0.46627676 -0.052332003 0.76499093
-0.042048156 -0.046181653 0.7667858
0.22825259 -0.044997033 0.76532996
0.23032419 -0.041522894 0.76218754
0.30891138 -0.045893289 0.76187503
0.34796184 -0.041462507 0.76585007
0.43722746 -0.045084279 0.76572216
0.46822175 -0.040999603 0.7644375
0.47133234 -0.045796219 0.76506948
-0.54347521 -0.033832315 0.76580364
-0.53401029 -0.032206636 0.76762497
-0.52763712 -0.032236625 0.76657146
-0.51993382 -0.030492965 0.76375002
-0.3907063 -0.031923443 0.76087499
-0.38735518 -0.031944409 0.76137507
-0.37552148 -0.031638429 0.76395011
-0.36604935 -0.032128248 0.76438892
-0.35356942 -0.031866442 0.76126796
-0.34605294 -0.031779576 0.76273221
-0.33752957 -0.031932093 0.7624445
-0.31063098 -0.030662648 0.76800001
-0.30383536 -0.030398857 0.76139289
-0.29611251 -0.030614406 0.76679164
-0.28452459 -0.030484233 0.76353121
-0.27527165 -0.030461775 0.76296878
-0.26530901 -0.030475222 0.76330554
-0.25580344 -0.030389408 0.76115632
-0.23640735 -0.030369865 0.76066667
-0.22775258 -0.030360714 0.76043749
-0.041153569 -0.035798267 0.76666665
0.229407 -0.034846667 0.7651667
0.23046188 -0.037413452 0.76393759
0.33337718 -0.037205376 0.7635625
0.34553322 -0.039270435 0.76496428
0.43833551 -0.039929878 0.76625001
0.46527779 -0.039276663 0.76363891
-0.52116346 -0.027986918 0.76593751
-0.51652145 -0.027265232 0.76025003
-0.39717922 -0.023942634 0.76093757
-0.30433801 -0.029416192 0.76264286
-0.29619354 -0.029584253 0.76700002
-0.28452456 -0.029450458 0.76353127
-0.27505118 -0.029432859 0.76307499
-0.26531851 -0.029442824 0.76333344
-0.25528261 -0.029358182 0.76113892
-0.24056712 -0.029323896 0.76025003
-0.23642023 -0.029341577 0.76070833
-0.22775258 -0.029331129 0.76043749
-0.21410407 -0.027952928 0.76416177
-0.20291492 -0.027983028 0.76581252
-0.19341803 -0.027406184 0.76059377
-0.18078621 -0.027770765 0.76000005
-0.17456619 -0.027680283 0.76223338
-0.16782959 -0.026836867 0.76270837
-0.15252927 -0.025721401 0.76025003
-0.14639369 -0.023795782 0.76450002
-0.042442329 -0.024255574 0.76286119
0.22759157 -0.024703326 0.76330423
0.35699934 -0.020079698 0.76100004
0.40785396 -0.020147862 0.76358336
0.410124 -0.020132471 0.76300001
0.42865559 -0.020251207 0.76750004
0.44495919 -0.020165453 0.76425004
0.47721916 -0.020238956 0.76703578
0.48192477 -0.020218225 0.76625007
-0.40060717 -0.019249607 0.76900005
-0.39777198 -0.014399978 0.7622416
-0.043123797 -0.015007745 0.76477784
0.22548206 -0.014794406 0.76432747
0.33781111 -0.016216997 0.76754427
0.34281844 -0.016581597 0.76296741
0.35708618 -0.018318553 0.76284373
0.40618169 -0.018187944 0.7654376
0.41081846 -0.018419394 0.76333338
0.42733869 -0.018680222 0.76700008
0.44342375 -0.019167628 0.76572502
0.47726345 -0.019202227 0.76710713
0.48148364 -0.019183896 0.76637506
-0.39810535 -0.0055870991 0.76325518
-0.14181101 -0.0025629518 0.76075006
-0.043154653 -0.0051582949 0.76532507
0.22484177 -0.0059279231 0.76340622
-0.39824933 0.0055374145 0.76202947
-0.043404173 0.005952721 0.76975006
0.22473651 0.0055414625 0.76458013
-0.39886522 0.015001339 0.76479268
-0.043924633 0.015461779 0.76070833
0.22369851 0.015127885 0.76634097
-0.51784563 0.026432732 0.76525003
-0.40048134 0.027672974 0.76434094
-0.39924991 0.023380745 0.76600724
-0.044038404 0.026200876 0.76267862
0.22286655 0.024861237 0.76652402
-0.40043691 0.03344455 0.7637834
-0.39945847 0.036908709 0.76635492
-0.044066589 0.034621641 0.76316667
0.22180304 0.034219675 0.76330262
-0.39899352 0.044974964 0.76497382
-0.04414564 0.046081904 0.76453573
0.22090596 0.045443185 0.76264066
-0.55347025 0.056571931 0.7665
-0.52389997 0.059451714 0.76350003
-0.40071362 0.057879545 0.76465005
-0.39914742 0.053559076 0.76363969
-0.044410624 0.051038511 0.76912498
0.22362171 0.05238096 0.76471162
0.2358987 0.056167513 0.76808751
0.24486923 0.058130935 0.76274997
-0.52354622 0.061834112 0.76525003
-0.51892191 0.062327605 0.76075006
-0.50611848 0.063110702 0.76242185
-0.48299083 0.065549649 0.76833344
-0.47838485 0.065174602 0.76595837
-0.46396312 0.065434605 0.76698434
-0.453417 0.066596471 0.76595002
-0.44566923 0.065950856 0.76724368
-0.43942931 0.0651282 0.76950002
-0.42371684 0.065545805 0.76884097
-0.40488502 0.062191382 0.76397228
-0.15272424 0.06455534 0.76575005
-0.14886813 0.068913341 0.76525003
-0.044420734 0.063028097 0.76930004
0.24861036 0.064612843 0.76375771
0.25245798 0.065591201 0.76182693
0.29956234 0.068032131 0.76700002
0.30444673 0.064052418 0.76753128
0.31950811 0.06184148 0.76750004
0.32054761 0.06184148 0.76750004
-0.14264204 0.07141488 0.76522923
-0.13325995 0.071628198 0.76937503
-0.12561348 0.071837075 0.76881939
-0.11491938 0.071340919 0.76351249
-0.10504889 0.071576081 0.76881242
-0.095647871 0.071194686 0.76292646
-0.086493239 0.071132466 0.76128125
-0.075934567 0.071144968 0.76141667
-0.06137982 0.073878862 0.76917851
-0.056699071 0.073568426 0.76938891
0.12919955 0.077526137 0.76950014
0.13234763 0.077493064 0.76938003
0.24913852 0.071655691 0.76687503
0.25315902 0.074364297 0.76497835
0.26176852 0.079336062 0.76585001
0.29572931 0.076371565 0.7634688
0.30034348 0.072374813 0.76900005
0.069185309 0.083380952 0.76968753
0.071003892 0.08380837 0.76962489
0.12937696 0.08155071 0.76962507
0.1350296 0.084974751 0.7691105
0.14070147 0.086623542 0.76956248
0.26260084 0.080310009 0.76525003
0.27758113 0.082003765 0.76655352
0.28553292 0.08175344 0.76421243
0.29204446 0.081245527 0.76431251
0.068148382 0.099541761 0.76975006
0.070233472 0.099541768 0.76975006
0.1078857 0.096303731 0.76933599
0.11086879 0.095873319 0.7695834
0.12965865 0.099020675 0.76975006
0.13413674 0.09456908 0.7692036
0.14008413 0.090162024 0.76975006
-0.51168931 0.10900176 0.76950002
-0.50934005 0.10942475 0.76962507
0.045576837 0.10879054 0.76969111
0.059808001 0.10996372 0.76975006
0.066418342 0.10548904 0.76960307
0.070219785 0.10264854 0.76960003
0.10828644 0.10058396 0.76975006
0.12962858 0.10368673 0.76957142
0.13306633 0.10325768 0.76935917
-0.51113337 0.11138666 0.76950008
-0.50925732 0.11149077 0.76950002
0.045109913 0.11464977 0.76961744
0.056030463 0.11488762 0.76922876
0.062963814 0.11500941 0.76925546
0.10934082 0.11693652 0.76949996
0.11188874 0.11758185 0.76942855
0.13489479 0.11864088 0.7695874
0.14008413 0.11934346 0.76975006
0.046408836 0.12647578 0.76942211
0.057448197 0.12388627 0.76911432
0.063518248 0.1247312 0.76935279
0.070565782 0.1293899 0.7695834
0.10951672 0.12458861 0.76949996
0.1147358 0.12533632 0.76915669
0.12230022 0.12693121 0.76917857
0.13533129 0.12468269 0.76929826
0.14069143 0.12401734 0.76965004
-0.49547979 0.13867271 0.76960713
0.045149323 0.13470392 0.76925027
0.066824526 0.13519453 0.76860112
0.071082503 0.13531682 0.76895183
0.10938817 0.13212921 0.76964289
0.11359566 0.13169296 0.76947361
0.12425501 0.13165623 0.76948804
0.1327863 0.13080759 0.76975006
-0.55382758 0.1472943 0.76919758
-0.54795355 0.14873205 0.76957697
-0.52818859 0.14696161 0.76975006
-0.49550274 0.14061448 0.76964289
-0.4259147 0.14883757 0.76975006
-0.38014692 0.1495671 0.76975006
-0.37771133 0.14909962 0.76964283
0.044831298 0.14509754 0.76960146
0.050425075 0.1495671 0.76975006
0.067345239 0.1448552 0.76921237
0.070980899 0.14386985 0.76937497
0.10854893 0.14686789 0.7692613
0.11254288 0.14710423 0.7692405
0.12869917 0.14734909 0.76941663
0.13256203 0.14725012 0.76934272
-0.5605709 0.15437999 0.76864576
-0.556077 0.15482594 0.76892948
-0.54534 0.1511908 0.76967859
-0.49534839 0.15686245 0.76975006
-0.4577693 0.15760414 0.76967043
-0.43186903 0.15648274 0.76959109
-0.42481118 0.15324657 0.76964295
-0.41925129 0.15422186 0.769575
-0.39736542 0.1581277 0.76947129
-0.38009754 0.1526739 0.7696501
-0.37705785 0.15445328 0.76946455
-0.28565425 0.15904158 0.76975006
-0.260254 0.15946794 0.76975006
-0.2582992 0.15855601 0.76975006
-0.19286931 0.15362361 0.76957422
-0.18785624 0.1530741 0.7695666
0.04591113 0.15518858 0.76889676
0.054103132 0.15688421 0.76917928
0.06572178 0.15589926 0.76889646
0.071499735 0.15654144 0.76906025
0.1085932 0.15560466 0.76918554
0.11377182 0.15584756 0.76907152
0.12635697 0.15621026 0.76859587
0.1347491 0.15515552 0.76904172
0.14008413 0.15477808 0.76975006
0.20272934 0.15964673 0.76953572
-0.56100297 0.16087434 0.76900005
-0.55765903 0.16096151 0.76941663
-0.52818859 0.16936879 0.76975006
-0.51279348 0.16689092 0.76936126
-0.50587082 0.16534823 0.76919633
-0.45781666 0.16103123 0.76975006
-0.39686292 0.16488197 0.76939559
-0.38277763 0.16842659 0.76936769
-0.28631768 0.16103123 0.76975006
-0.27080926 0.16413115 0.76962501
-0.26774117 0.16436554 0.7696135
-0.25921145 0.16103123 0.76975006
-0.22182523 0.16718678 0.76930267
-0.21907538 0.1669655 0.76959091
-0.19600235 0.1685544 0.7696923
-0.18206294 0.1672844 0.76975
-0.16144747 0.16547543 0.76948005
-0.15798488 0.16498853 0.76926738
0.039993107 0.16569437 0.76962507
0.045188967 0.16503267 0.76810747
0.05514013 0.16509123 0.7684651
0.065038264 0.16533564 0.76734829
0.072207607 0.16480829 0.76804638
0.10727743 0.16535942 0.76834261
0.11469372 0.1651973 0.76781809
0.12485334 0.16505225 0.76905841
0.13447753 0.16500732 0.7687273
0.19911861 0.16342759 0.7695834
0.20274171 0.16377395 0.76910543
0.36266795 0.16780549 0.76975006
-0.53075188 0.17300242 0.76968753
-0.5270614 0.17376432 0.76925683
-0.5120548 0.17118368 0.7694751
-0.50585836 0.1722225 0.76937503
-0.49733862 0.17883049 0.76914293
-0.48052695 0.17942387 0.76966673
-0.47413173 0.17764008 0.7693575
-0.46856418 0.1781916 0.76942313
-0.39567271 0.17237563 0.76961958
-0.38367805 0.1729794 0.76908338
-0.37389162 0.17979074 0.76975006
-0.22188044 0.17210697 0.7693823
-0.21903057 0.17246191 0.76960003
-0.19652882 0.17158727 0.76964986
0.039121687 0.17604519 0.76942384
0.045073833 0.17500839 0.76863229
0.054928038 0.17500725 0.76869595
0.064998217 0.17513868 0.76800913
0.071691871 0.17534614 0.76811367
0.10738651 0.17450781 0.76816493
0.11506557 0.17492937 0.76722741
0.12501191 0.17478803 0.76849765
0.13441224 0.1748164 0.76882434
-0.5519197 0.18668537 0.7692728
-0.54951251 0.18663438 0.76950002
-0.52156997 0.18796487 0.76955569
-0.5192349 0.18680026 0.76952785
-0.50394499 0.1852279 0.76781875
-0.49507028 0.18524402 0.76787019
-0.48445293 0.18545675 0.76846707
-0.476432 0.18443896 0.76845801
-0.46820429 0.18171068 0.7694546
-0.45244497 0.18629509 0.76896966
-0.4454281 0.18636417 0.76793736
-0.43521777 0.18707459 0.76792276
-0.4236742 0.18537143 0.76707876
-0.4150714 0.18662782 0.76692033
-0.40903279 0.18682328 0.76917648
-0.38083595 0.18756118 0.76956254
-0.37519222 0.18602556 0.76897407
-0.36429134 0.18829696 0.76902288
-0.35459575 0.18666944 0.76696074
-0.34546912 0.18783911 0.76767814
-0.33792189 0.1888361 0.76839286
-0.32697701 0.18791986 0.76975006
-0.29214615 0.18891937 0.76908344
-0.28944743 0.18963885 0.76883334
-0.2754336 0.18885522 0.7684707
-0.22793503 0.18917048 0.76975006
-0.21207921 0.18442066 0.76950014
-0.20773076 0.18382111 0.76952004
-0.17420137 0.18822528 0.76902223
-0.16955239 0.18917048 0.76975006
-0.083071232 0.18915136 0.76925004
0.039071299 0.18431135 0.76932609
0.045218475 0.1851024 0.76844889
0.051379904 0.18472305 0.7694062
0.066508062 0.1846045 0.76887518
0.070704736 0.1863016 0.76920313
0.10742535 0.18538533 0.76820606
0.11329209 0.18378522 0.76864129
0.12539338 0.18463945 0.76788974
0.13489315 0.18514475 0.76772684
0.141552 0.18653803 0.76907891
-0.55162919 0.19106852 0.76900005
-0.49435306 0.19091059 0.76766676
-0.48178968 0.1906337 0.76725006
-0.47765535 0.19053942 0.76687503
-0.45385489 0.19090281 0.76833338
-0.44928223 0.19050947 0.76675004
-0.43571255 0.19060877 0.76622224
-0.42697567 0.19189502 0.76400006
-0.4127275 0.19219635 0.76520461
-0.40932274 0.19092314 0.7684167
-0.38081804 0.19054793 0.76900005
-0.37490052 0.19104056 0.76774997
-0.3648439 0.19239284 0.76751316
-0.35483649 0.19120671 0.76373333
-0.34527686 0.19118525 0.76530182
-0.33689865 0.1908021 0.76792866
-0.32749829 0.19177596 0.76975006
-0.31123766 0.19153981 0.76950002
-0.30925372 0.19177596 0.76975006
-0.29274341 0.19153243 0.76820463
-0.28815392 0.19206221 0.76853341
-0.27509749 0.19229883 0.76612186
-0.23366904 0.19021267 0.76975006
-0.22582833 0.1925398 0.76825011
-0.18102042 0.19229706 0.76975006
-0.17430711 0.1931587 0.76798189
-0.16748708 0.19374822 0.76921743
-0.1510217 0.19430976 0.76741672
-0.14465123 0.1934074 0.76712292
-0.13640457 0.19360544 0.7674787
-0.12560076 0.19612361 0.76832396
-0.11678574 0.19731836 0.76880258
-0.10806368 0.19643036 0.76671427
-0.083546162 0.19324738 0.76851314
-0.079348892 0.19288355 0.76906818
-0.054872196 0.19363703 0.76975
-0.043166313 0.1960412 0.76935363
0.0038464626 0.19669119 0.76931095
0.036019161 0.19858296 0.76962495
0.045255054 0.19499922 0.76849365
0.051412012 0.19502462 0.76891071
0.066487297 0.19540843 0.76885647
0.070651002 0.19499116 0.76932806
0.10695565 0.19522902 0.76862055
0.11132605 0.19533348 0.7691406
0.12622835 0.19499114 0.76773489
0.13472554 0.19496973 0.76668239
0.14389765 0.19575886 0.76891232
0.15381902 0.19898082 0.76926666
0.16800262 0.19914962 0.7696501
0.22348791 0.19959243 0.76975006
0.24518108 0.19939713 0.76966673
0.25242499 0.19854157 0.76942855
0.27698907 0.19819789 0.76915467
0.28099743 0.19874604 0.76950008
0.30890974 0.1995492 0.7695834
0.42506132 0.19789918 0.76964986
-0.11780033 0.20043798 0.76766664
0.0040292079 0.20092085 0.76925004
0.036256935 0.20477109 0.76831567
0.045129247 0.20494813 0.7683419
0.05480833 0.20591906 0.76878083
0.064921647 0.20491484 0.7680226
0.070703253 0.2051748 0.76918757
0.1064461 0.20481548 0.76725364
0.11449118 0.20563348 0.76675558
0.12509769 0.20507966 0.76766264
0.1348246 0.20508052 0.76650757
0.14538141 0.20464885 0.76662016
0.15355435 0.20335519 0.76446438
0.16822922 0.20247622 0.76939279
0.17762099 0.20591556 0.76895463
0.18091464 0.20633902 0.76900005
0.19487308 0.20362622 0.76842707
0.22648084 0.20321193 0.76853389
0.23789927 0.203088 0.76836759
0.24472103 0.20323877 0.76772547
0.25171384 0.20178628 0.76924998
0.27660716 0.20269592 0.76859456
0.28110883 0.20235579 0.76925009
0.29697207 0.20528176 0.76526922
0.30828661 0.20363887 0.76886612
0.31473225 0.20560804 0.7677502
0.32449925 0.2061201 0.76879251
0.3307347 0.207297 0.76895005
0.34727949 0.2087605 0.76365
0.35451558 0.20615159 0.76839286
0.36452538 0.20640583 0.76906615
0.37363276 0.20822187 0.76700002
0.38144502 0.20612371 0.76179171
0.4439401 0.20797403 0.7690894
0.46694395 0.20858647 0.76721883
0.47247547 0.20839082 0.76888895
0.037448823 0.21290404 0.76889062
0.045170315 0.21521509 0.76843119
0.05517466 0.2149768 0.7670356
0.065026119 0.21496084 0.76651043
0.071782537 0.215363 0.76761299
0.1063747 0.21504997 0.7672652
0.1149878 0.21490361 0.76489615
0.12499786 0.21490046 0.76673043
0.13504858 0.21504085 0.76576275
0.14313211 0.21410587 0.76678932
0.41493681 0.21989599 0.76425004
0.44664702 0.21100631 0.76805007
0.45017758 0.21182321 0.76875001
0.46518326 0.21066493 0.76622224
0.038123805 0.22694123 0.76825774
0.04500008 0.22508468 0.76669896
0.055166997 0.22507027 0.76599646
0.064722881 0.22514629 0.7670328
0.071513526 0.22504383 0.76879692
0.10587293 0.22505359 0.76705688
0.11493725 0.22508265 0.76573229
0.12568343 0.22506627 0.7677139
0.13455459 0.22482336 0.76632071
0.14206782 0.22443292 0.76813096
0.41290402 0.22154808 0.76400012
0.037069157 0.2350354 0.76739192
0.044997863 0.23494488 0.76608038
0.054816104 0.23479865 0.7656101
0.064802215 0.23488346 0.76682848
0.070712231 0.23354657 0.76928574
0.10579184 0.23513941 0.7673142
0.11506935 0.23526762 0.76575768
0.12495476 0.23478359 0.76667869
0.13451001 0.23511483 0.76760739
0.14102127 0.23524611 0.76918757
0.037835494 0.24333379 0.76882815
0.045091901 0.24500743 0.76690161
0.054836832 0.24509473 0.76669037
0.064187303 0.24459122 0.76728886
0.10697069 0.24321994 0.76827574
0.11497195 0.24487582 0.76549739
0.12503935 0.24449897 0.76643366
0.13423949 0.24484132 0.76718742
0.039980114 0.25314242 0.76937503
0.045336816 0.25484934 0.76788002
0.054703172 0.25504526 0.76825595
0.063191697 0.25506872 0.76905638
0.10786178 0.25638971 0.76879156
0.11504852 0.25477886 0.76697034
0.12531094 0.25498638 0.76865584
0.13350488 0.25524962 0.765728
0.047230527 0.26260436 0.76937509
0.055998869 0.26397842 0.76903677
0.06393069 0.26490003 0.76807612
0.10824222 0.26251489 0.76902777
0.1153217 0.26289076 0.76834315
0.12510401 0.26495096 0.76840466
0.039975788 0.27707022 0.7692917
0.043292109 0.27650198 0.76844293
0.059114471 0.27246788 0.769077
0.063224398 0.2753084 0.76827228
0.12743919 0.27440566 0.76756024
0.13168657 0.27562732 0.76563293
0.039973617 0.28382635 0.76925004
0.043962557 0.2848812 0.76762712
0.065039344 0.28574914 0.76659197
0.12729041 0.28536242 0.76685083
0.043003403 0.292528 0.76930946
0.058709629 0.29803509 0.76811671
0.070165038 0.29830995 0.76900005
0.10594436 0.2956354 0.76734942
0.11283934 0.29655418 0.76741463
0.12780632 0.29519942 0.76740998
0.037928782 0.30689979 0.76730657
0.04529991 0.30737808 0.76872456
0.063530877 0.30473676 0.7669127
0.08784952 0.30449709 0.76857233
0.090834551 0.30492386 0.7694
0.10756361 0.30274117 0.76866668
0.11531617 0.30499062 0.76695269
0.038532972 0.31187707 0.76822227
0.04573185 0.3124027 0.76871324
0.038518518 0.3284713 0.76835299
0.043109115 0.3273367 0.76825005
0.096504457 0.32423094 0.76866674
0.090012625 0.33705255 0.76950002
0.085675523 0.3434304 0.76942348
0.090041868 0.34028864 0.76975006
-0.56121111 -0.034391366 0.77000004
-0.54155755 -0.031707961 0.77043188
-0.54134315 -0.02972568 0.77066678
-0.043421082 0.0044952775 0.77004999
-0.39949575 0.015406176 0.7708751
-0.39880693 0.034440529 0.77196997
0.13473943 0.044955812 0.7719776
-0.55637306 0.058281858 0.77196878
-0.39954212 0.052069392 0.77440387
-0.044499047 0.056356531 0.77065629
0.044929806 0.055026919 0.77238059
0.13474493 0.055039845 0.77161425
0.23190357 0.055266455 0.77000004
-0.55465049 0.064828701 0.77405179
-0.54560983 0.064800255 0.77496564
-0.53534663 0.065486021 0.77390158
-0.52470273 0.067350909 0.77271587
-0.51522315 0.067479491 0.77310473
-0.50478923 0.067525178 0.77206784
-0.49481276 0.067370288 0.77181518
-0.48518032 0.067910038 0.771662
-0.47556093 0.067688875 0.77347457
-0.46519157 0.068592995 0.77278405
-0.45660529 0.068524271 0.7703439
-0.4441613 0.068819314 0.77105695
-0.43538785 0.067441776 0.77211457
-0.42469129 0.067835517 0.77127635
-0.41485351 0.067465492 0.77189791
-0.40407616 0.065307789 0.77412617
-0.27482361 0.066867404 0.77423614
-0.26576471 0.066738136 0.7742613
-0.25510311 0.067199193 0.77428567
-0.22494757 0.067306854 0.77490574
-0.16483796 0.0679539 0.77380019
-0.15659876 0.067216098 0.77269751
0.044752691 0.064944521 0.77236998
0.054823585 0.064889252 0.77223319
0.073368318 0.064762957 0.77344453
0.11489834 0.064799622 0.77311587
0.12536606 0.065032162 0.77327454
0.13530591 0.06505353 0.77151167
0.31012002 0.064127982 0.77000004
-0.5628196 0.075117975 0.77471942
-0.55532086 0.075148396 0.77553082
-0.54481608 0.074921884 0.77394724
-0.5349676 0.074820511 0.773763
-0.52485114 0.075098425 0.7747007
-0.515351 0.075203203 0.7752623
-0.50530618 0.075007468 0.7751717
-0.49471229 0.075162947 0.77353847
-0.4847053 0.074975587 0.77321327
-0.47512922 0.074804842 0.77503395
-0.46496841 0.075139686 0.77361989
-0.45479497 0.075297683 0.77178127
-0.44505623 0.07519386 0.77269185
-0.4352755 0.074956082 0.7741611
-0.42491171 0.075062633 0.77398282
-0.41503701 0.074826673 0.77408808
-0.40491921 0.074964665 0.77425843
-0.394696 0.074838147 0.774113
-0.38547832 0.075198658 0.77556038
-0.3747938 0.074917942 0.77462506
-0.36523026 0.075167418 0.7754429
-0.35473233 0.07499595 0.77458358
-0.33492497 0.074870765 0.7738049
-0.32465154 0.075097121 0.77304751
-0.31533155 0.0752514 0.77497548
-0.30475089 0.075017489 0.77388251
-0.29502904 0.075021625 0.77483362
-0.28500944 0.075006932 0.77469152
-0.27503297 0.074862815 0.77319443
-0.26542154 0.074959062 0.77418602
-0.25516033 0.075076237 0.7745313
-0.24497361 0.074830331 0.77377409
-0.23511125 0.07498841 0.77450842
-0.22478011 0.074865602 0.77323467
-0.21495233 0.074908406 0.77368885
-0.2048756 0.075078093 0.77415287
-0.19507284 0.07488393 0.77466905
-0.1848653 0.074904189 0.77449709
-0.17496362 0.075094484 0.77468395
-0.1646986 0.074932232 0.77389443
-0.15487327 0.074995615 0.77454025
-0.14542797 0.076053999 0.77339995
-0.1352464 0.075543694 0.77177739
-0.12486771 0.076397575 0.77281255
-0.11496351 0.076412119 0.77410263
-0.1050844 0.07617218 0.77337307
-0.094926514 0.07629928 0.77376741
-0.075154096 0.07657326 0.77460182
-0.065440759 0.076635882 0.7723397
-0.054353882 0.076525643 0.77317643
0.044790842 0.075220518 0.77151024
0.054994036 0.075355463 0.77147412
0.064976178 0.075176969 0.77249765
0.074091591 0.075269885 0.77410346
0.10733575 0.075041868 0.77386963
0.11447694 0.07514891 0.77362961
0.13607544 0.074234642 0.77119982
0.26014593 0.079791866 0.77025002
-0.56329286 0.084999733 0.77567768
-0.55508089 0.085002348 0.77535492
-0.5446738 0.08514265 0.77466178
-0.53548145 0.084909022 0.77525884
-0.52479011 0.084767587 0.77213007
-0.51534057 0.084921002 0.77338243
-0.5048092 0.08487951 0.77386379
-0.49497384 0.085019626 0.77311903
-0.48506296 0.084639728 0.77342308
-0.47512513 0.085113719 0.77421445
-0.46487468 0.085022837 0.77329695
-0.45482004 0.085122287 0.77230954
-0.44440675 0.085082673 0.77197027
-0.43506536 0.084873103 0.77378738
-0.42492667 0.084769122 0.7740519
-0.41489336 0.085014321 0.77386427
-0.40493876 0.084818467 0.77329177
-0.39532635 0.084892139 0.77395737
-0.3853029 0.08499305 0.77488053
-0.37528417 0.084980883 0.77477241
-0.36465767 0.084826238 0.77296871
-0.35488117 0.084904 0.77442557
-0.34522158 0.085072629 0.77492553
-0.33519089 0.084963061 0.77403486
-0.32519719 0.085146636 0.77338421
-0.3150472 0.084811002 0.77278614
-0.30496976 0.084833443 0.77342981
-0.29492486 0.08473593 0.77362603
-0.28526926 0.085049219 0.77437633
-0.2748898 0.084958829 0.77413386
-0.26528639 0.08497072 0.77514839
-0.2550444 0.084787562 0.77406406
-0.24489136 0.084945105 0.77337623
-0.23488227 0.084867761 0.77375239
-0.22509526 0.084932789 0.77432513
-0.21512218 0.084912881 0.77339721
-0.20481804 0.084605642 0.77320796
-0.19509734 0.085148618 0.77509058
-0.18524653 0.084934279 0.77433842
-0.17518903 0.084887028 0.77392709
-0.16493817 0.08500614 0.77501756
-0.15486573 0.084949575 0.77450836
-0.14504196 0.085063584 0.77474511
-0.13485917 0.084743097 0.77341849
-0.12494686 0.084938623 0.77438003
-0.1149184 0.084886447 0.77393067
-0.10507562 0.084981196 0.77478784
-0.095126562 0.084999457 0.77495277
-0.085154988 0.084995359 0.77493256
-0.075143054 0.084950373 0.77451664
-0.065183811 0.084963143 0.77460027
-0.055245772 0.085004337 0.77498913
-0.045206025 0.084873326 0.77380478
-0.014827038 0.084960319 0.77459258
0.0051098256 0.084999591 0.77494764
0.02502621 0.0849142 0.77418745
0.034976505 0.084894337 0.77398866
0.04482558 0.085209601 0.77208072
0.054887079 0.085403077 0.77381802
0.064507782 0.085334018 0.77253491
0.073847152 0.085123822 0.77217942
0.11511538 0.084949732 0.77270311
0.12509687 0.085135184 0.77267051
0.13417673 0.084833451 0.77003574
0.14527193 0.084532 0.7715233
0.15498148 0.084879398 0.77385497
0.18480922 0.084859431 0.77368057
0.22504616 0.084943317 0.77364504
0.27458233 0.086257599 0.77298415
0.28463498 0.086882606 0.77301681
0.2952823 0.086206779 0.77355868
-0.56301504 0.094927281 0.77463335
-0.55479181 0.095256984 0.77347463
-0.54489064 0.094905943 0.77352923
-0.53554428 0.095172763 0.77579784
-0.52462047 0.094926089 0.77398974
-0.51491517 0.094728462 0.77380574
-0.50506675 0.094884515 0.77425933
-0.49490121 0.095203489 0.77304763
-0.48509172 0.095199831 0.7727958
-0.47520143 0.094692238 0.77397549
-0.46500885 0.094841972 0.77391016
-0.45470718 0.094969593 0.77276742
-0.44495952 0.094642088 0.77295727
-0.43497056 0.095088318 0.77307081
-0.42474106 0.095293745 0.77243048
-0.41499841 0.09510868 0.77400255
-0.40461454 0.094942391 0.77302015
-0.39493337 0.095146038 0.77216673
-0.38506299 0.095318295 0.77355504
-0.37511349 0.095417306 0.77366227
-0.36475354 0.095178977 0.7729249
-0.3549923 0.095206 0.77403182
-0.34516686 0.095088184 0.7749266
-0.33491075 0.09477073 0.77433121
-0.32506713 0.095225327 0.77418262
-0.3148818 0.095293172 0.77333015
-0.30507046 0.094813801 0.77368599
-0.29501802 0.094783172 0.77375609
-0.28522643 0.095023178 0.77366197
-0.27490973 0.095196679 0.7725628
-0.26527429 0.095218636 0.7741583
-0.2548354 0.095287703 0.77315521
-0.24471179 0.094936468 0.77315742
-0.23487726 0.095198356 0.77274203
-0.22491634 0.095080145 0.7730844
-0.21478681 0.094960898 0.77351332
-0.20503485 0.095077805 0.77336025
-0.19517641 0.095004417 0.77387637
-0.18511048 0.09513139 0.77428555
-0.17507729 0.095231377 0.77321976
-0.16485351 0.094928399 0.77461988
-0.15487087 0.094918706 0.77453703
-0.14496073 0.094953179 0.7748279
-0.13474733 0.095113695 0.77413511
-0.12505743 0.094999127 0.77474195
-0.11491844 0.095096745 0.77351743
-0.1050114 0.094890565 0.77431113
-0.095005944 0.094846286 0.77395648
-0.084979646 0.094770022 0.77333313
-0.075100437 0.094865471 0.77410191
-0.06505359 0.094978869 0.77411717
-0.055290014 0.095223777 0.77410364
-0.045192037 0.0948008 0.77358043
-0.034800179 0.095036276 0.77549982
-0.024786489 0.094893329 0.77433962
-0.014806563 0.094796315 0.77355254
-0.0047714678 0.095020883 0.77436459
0.005108505 0.094928294 0.77463043
0.015074749 0.094949119 0.77479637
0.025001902 0.094782948 0.77343595
0.035033293 0.094927572 0.77409756
0.044796165 0.095076762 0.77158773
0.054812633 0.095219232 0.77275848
0.064618208 0.09505146 0.77257729
0.073275402 0.095167048 0.77223349
0.10706307 0.091497295 0.77223682
0.11569539 0.09504737 0.77195847
0.125324 0.095112637 0.77256614
0.13814048 0.095978752 0.77015013
0.14470121 0.095167182 0.77187091
0.15480703 0.095133625 0.77363521
0.18497807 0.094901249 0.77438903
0.20529316 0.094835661 0.773875
0.21505585 0.095124505 0.77329308
0.22516842 0.094996005 0.77429605
0.23512237 0.094852068 0.77441496
0.26512271 0.094866358 0.7741251
0.27491969 0.094809942 0.7736572
0.28476807 0.094997741 0.77337486
0.29515532 0.09489283 0.77402669
0.34485945 0.094762854 0.77382791
0.35478604 0.094977431 0.77392203
-0.56255698 0.10447241 0.77368349
-0.55478394 0.1052422 0.77291101
-0.54552704 0.10494642 0.77554828
-0.53484023 0.10474303 0.77590907
-0.52545273 0.10490564 0.77534944
-0.51451451 0.10424796 0.77223462
-0.50529927 0.10501905 0.77343011
-0.49465695 0.10537013 0.77261704
-0.48527449 0.10493987 0.77449304
-0.47462139 0.10464396 0.77388376
-0.46561891 0.10501609 0.77455592
-0.4547663 0.10486434 0.77334547
-0.44492701 0.10489898 0.77419299
-0.43513435 0.10527775 0.77369243
-0.42456427 0.10479864 0.77164006
-0.4147847 0.10502365 0.77291679
-0.40505588 0.10496578 0.77243423
-0.39466643 0.10481557 0.77096987
-0.38521564 0.10538194 0.77318943
-0.37471575 0.10506825 0.77285933
-0.36474589 0.10512168 0.77245688
-0.35484475 0.10499994 0.77280647
