# .PCD v0.7 - Point Cloud Data file format
VERSION 0.7
FIELDS x y z
SIZE 4 4 4
TYPE F F F
COUNT 1 1 1
WIDTH 1377
HEIGHT 1
VIEWPOINT 0 0 0 1 0 0 0
POINTS 1377
DATA ascii
-0.11515452 0.046790194 0.72841144
-0.10631926 0.047699261 0.72963625
-0.095637888 0.046957321 0.72919929
-0.1413909 0.055790529 0.72915393
-0.13519 0.055198044 0.72786504
-0.12514262 0.055116363 0.72677773
-0.11587694 0.054551803 0.72789943
-0.10205863 0.054213714 0.72968191
-0.095248133 0.055363245 0.72897595
-0.13403596 0.061599534 0.72829169
-0.12553868 0.061693612 0.72854704
-0.11844797 0.061002024 0.72950006
-0.094993204 0.061091304 0.72958332
0.19460426 0.19566651 0.72800004
0.20326312 0.2316153 0.72025001
0.32760644 0.2319369 0.72125006
-0.53446203 -0.27504617 0.73697668
-0.52540469 -0.2748155 0.73642474
-0.4848443 -0.27516276 0.73637795
-0.52530414 -0.26472145 0.73693943
-0.48521203 -0.26489466 0.73715937
-0.47503072 -0.26503485 0.7374025
-0.46517742 -0.26519459 0.73732889
-0.53469789 -0.25521991 0.73767304
-0.52466524 -0.25490788 0.73660713
-0.51544267 -0.25451985 0.73632658
-0.49504367 -0.25548702 0.73714107
-0.48533559 -0.25500226 0.73704797
-0.47519246 -0.25504294 0.73691332
-0.15138175 -0.25379258 0.73576391
-0.53451204 -0.24498136 0.7368297
-0.524822 -0.24503987 0.73539418
-0.51546609 -0.24486338 0.73708498
-0.505014 -0.24528767 0.7359761
-0.49482647 -0.24477521 0.73528451
-0.48511788 -0.24499476 0.73549211
0.33882964 -0.24514751 0.73542178
-0.53394765 -0.23458895 0.73613638
-0.52525812 -0.23513433 0.73577273
-0.51502734 -0.23467356 0.73617125
-0.50486803 -0.23488349 0.73655105
-0.49453938 -0.23518948 0.73568755
-0.48517787 -0.23473082 0.73680109
-0.47521123 -0.23500431 0.7377001
-0.46467835 -0.23495302 0.73752403
-0.13851342 -0.23691528 0.73555475
0.33923891 -0.23590837 0.73509294
0.3556191 -0.23390363 0.7348913
-0.53339821 -0.22898181 0.73866177
-0.52476943 -0.22879745 0.73784465
-0.51646781 -0.2291913 0.7383638
-0.50434244 -0.22938555 0.738841
-0.49413455 -0.22828466 0.73711067
-0.48741436 -0.22926427 0.7386719
-0.47722262 -0.22944425 0.73925
-0.13901381 -0.22293611 0.73582137
0.34419081 -0.22539389 0.73491442
0.35356942 -0.22632211 0.73585087
-0.52503467 -0.21337351 0.73437494
-0.51501095 -0.21335262 0.73582798
-0.5048945 -0.21315409 0.7358945
-0.49567974 -0.21308292 0.73567194
-0.48552865 -0.21276231 0.73505116
-0.47415081 -0.21322314 0.73589522
-0.46592095 -0.21286729 0.73742807
0.34355208 -0.21474528 0.73477668
0.35403362 -0.21545726 0.73458189
-0.50550139 -0.20499887 0.73423558
-0.49528494 -0.20501842 0.73369223
-0.13910666 -0.20515276 0.73395652
0.34330872 -0.20558441 0.73461425
0.35766262 -0.20457603 0.73660237
-0.51509035 -0.19512814 0.73330218
-0.24434295 -0.19257344 0.73952276
0.34415904 -0.19476883 0.73425478
0.3643797 -0.19698349 0.7374438
-0.53324211 -0.18485458 0.73327088
-0.5149346 -0.18474409 0.73324257
-0.26503411 -0.18487999 0.73808151
-0.25475228 -0.18466601 0.73874724
-0.24504501 -0.18517715 0.73886168
-0.23907249 -0.18330705 0.73951477
-0.21112733 -0.18213855 0.73974997
-0.17847398 -0.18828458 0.73975003
0.25830773 -0.18177904 0.73882699
0.26432884 -0.18123828 0.73878753
0.27580073 -0.18169697 0.73790646
0.28413716 -0.18175751 0.73874038
0.29491422 -0.18256752 0.7373876
0.31417224 -0.18117265 0.7384091
0.3249844 -0.18128933 0.73758334
0.33278403 -0.18156986 0.73862505
0.34333533 -0.18614335 0.73531157
0.3644354 -0.18311477 0.73810905
0.39519408 -0.18141462 0.73688465
0.40455145 -0.18221596 0.73678452
0.41415706 -0.18167791 0.73456585
0.42549622 -0.18223806 0.73790646
0.45519686 -0.182081 0.73718184
0.46565121 -0.18244612 0.73745406
0.47489363 -0.18194859 0.73801672
0.48256963 -0.18130879 0.73830563
-0.53243977 -0.17593476 0.73268056
-0.2649329 -0.17490774 0.73758024
-0.25518224 -0.17508955 0.73885292
-0.24513738 -0.17546104 0.73907053
-0.23902039 -0.17900383 0.73953575
-0.22154231 -0.17281179 0.73970312
-0.21512921 -0.17595354 0.73969996
-0.16047427 -0.17325987 0.73760712
-0.14042304 -0.17467628 0.73575002
-0.13975933 -0.17334785 0.73375005
0.25777122 -0.17507136 0.73781252
0.26501372 -0.17452283 0.73532391
0.2750738 -0.17482866 0.73535115
0.28570357 -0.17498584 0.73696536
0.29486248 -0.17507593 0.7353738
0.30561683 -0.17500323 0.73765427
0.31461358 -0.17446813 0.73547107
0.32434675 -0.17486145 0.73419023
0.33558568 -0.17488295 0.73726082
0.3436234 -0.17419265 0.73249996
0.35573649 -0.17313659 0.73311979
0.36456612 -0.17500794 0.73422235
0.37503064 -0.17519207 0.73616785
0.38602275 -0.17424016 0.73739445
0.40494698 -0.17472568 0.73415399
0.41480148 -0.17494828 0.73405963
0.42454559 -0.1747582 0.73300797
0.4350099 -0.17472796 0.73503959
0.44497895 -0.17490605 0.73659557
0.45406079 -0.1749679 0.73480016
0.46536684 -0.17513885 0.73543465
0.47477692 -0.17596488 0.73321027
0.48253635 -0.17514828 0.73700929
-0.52560955 -0.16499017 0.73236787
-0.50511259 -0.16461875 0.73251492
-0.24602476 -0.16519557 0.73951447
-0.23336098 -0.16391699 0.73941326
-0.22828366 -0.16506582 0.73944879
-0.21642669 -0.1611314 0.73962498
-0.16100222 -0.16513489 0.7385
-0.15535221 -0.16464068 0.7321623
-0.1395022 -0.16707733 0.73240006
0.22976764 -0.16321784 0.73962504
0.23297761 -0.16312051 0.73924345
0.24816482 -0.16499059 0.7391091
0.25522843 -0.1644796 0.73839474
0.26466528 -0.16508906 0.73501104
0.27522305 -0.16502275 0.73433906
0.28501526 -0.16477771 0.73449427
0.29475522 -0.16491313 0.73378867
0.30513108 -0.16480479 0.73412788
0.31452093 -0.16481999 0.73312241
0.32502893 -0.16499723 0.73418254
0.33589908 -0.16487589 0.73467493
0.36518028 -0.16528359 0.73242247
0.37426102 -0.16447656 0.73282605
0.3857359 -0.16515143 0.73603106
0.39481238 -0.16496642 0.73436427
0.40499413 -0.16502276 0.73466456
0.41531256 -0.16533376 0.73586661
0.42472374 -0.16551943 0.73415124
0.4351927 -0.16512729 0.73592085
0.44511893 -0.16463318 0.73700684
0.45489839 -0.16522764 0.73531944
0.46319693 -0.16466726 0.7332148
0.47623649 -0.16365807 0.7325297
0.48110303 -0.16518515 0.73396671
-0.53338063 -0.15491249 0.73436397
-0.5246948 -0.15513328 0.73201221
-0.51507211 -0.15469666 0.73264104
-0.50484037 -0.15531637 0.73279387
-0.49491522 -0.15459323 0.7327044
-0.24342787 -0.15562303 0.73965454
-0.2342867 -0.1576301 0.73946595
-0.22780417 -0.15827438 0.73958927
-0.21468587 -0.15746449 0.73943377
-0.16171454 -0.15662211 0.73704547
0.22972882 -0.15768299 0.73950005
0.23399067 -0.15683751 0.73894137
0.24808638 -0.1547354 0.73816675
0.25523672 -0.15495217 0.73698008
0.26477009 -0.15493651 0.73379391
0.27505276 -0.15500937 0.73458534
0.28457609 -0.15498577 0.7334885
0.2950708 -0.15519074 0.73357594
0.30501735 -0.1549174 0.73401242
0.31467247 -0.15485606 0.73322493
0.32539764 -0.15509412 0.73441416
0.33518219 -0.15519759 0.73386931
0.3437134 -0.15635249 0.73209125
0.36503494 -0.15490319 0.73403126
0.37474775 -0.15522569 0.73449993
0.38494673 -0.15506816 0.73561645
0.39528111 -0.15527524 0.73586893
0.40472484 -0.15511592 0.73444754
0.41579205 -0.15524475 0.73631418
0.42521328 -0.15481494 0.73516959
0.43507606 -0.15494397 0.73557806
0.44538599 -0.1552463 0.7364167
0.45503649 -0.15523641 0.73433602
0.46466771 -0.15492688 0.73279679
0.47531587 -0.15562561 0.73512489
0.48175997 -0.1545815 0.73618579
-0.53207576 -0.14527138 0.73183924
-0.51543146 -0.14489906 0.73223132
-0.50533819 -0.14502692 0.73310167
-0.24516131 -0.14495347 0.73909384
-0.23421386 -0.1425793 0.73974997
-0.22837709 -0.14440784 0.73974997
-0.16093744 -0.14419308 0.73313892
0.24799579 -0.14492223 0.73724002
0.25499314 -0.14490108 0.73503989
0.26349223 -0.14550988 0.73191655
0.27545968 -0.14520735 0.73237044
0.28488964 -0.1449334 0.73325002
0.29488 -0.1452041 0.73462796
0.3045499 -0.14501084 0.73383582
0.31480089 -0.14501028 0.73341668
0.3254216 -0.14511836 0.7330001
0.36522397 -0.14502956 0.73251349
0.3750923 -0.14536205 0.73541492
0.38443628 -0.14507924 0.73418695
0.39509293 -0.14531542 0.73494941
0.40431139 -0.14496508 0.73335063
0.41534525 -0.14520468 0.73615277
0.42474523 -0.14501536 0.73443758
0.43536869 -0.14533465 0.73518962
0.44481584 -0.14534955 0.7348668
0.45552945 -0.14490025 0.7340591
0.47513801 -0.14468996 0.7321251
0.4808726 -0.14582188 0.73376793
-0.53227437 -0.13484944 0.73190421
-0.52529687 -0.13487336 0.73185927
-0.51507306 -0.13495001 0.73170072
-0.50531888 -0.13464007 0.73253387
-0.24515009 -0.1350271 0.7385543
-0.23372197 -0.13624406 0.73973584
-0.22937874 -0.13101308 0.7396667
-0.16163829 -0.13285761 0.73608333
-0.15918587 -0.13297872 0.73168755
-0.14315842 -0.13625738 0.73251206
0.24821198 -0.13494559 0.73776472
0.25505942 -0.13504125 0.73559082
0.26536536 -0.13513494 0.73498744
0.27494085 -0.1349403 0.73288643
0.28518778 -0.13526934 0.73424733
0.29505149 -0.13530159 0.73532587
0.30473989 -0.13500243 0.73323309
0.31517062 -0.13500234 0.73322219
0.32524717 -0.13526918 0.73467517
0.33437049 -0.13484518 0.73121256
0.35687482 -0.13478932 0.73250961
0.36526003 -0.13494341 0.73418087
0.37496749 -0.13496166 0.73277074
0.38447428 -0.13477042 0.73152328
0.39546427 -0.13506064 0.73422128
0.40426129 -0.13475198 0.7314899
0.41534284 -0.13480979 0.73287112
0.4247041 -0.13495116 0.73239988
0.43510646 -0.13509609 0.73384249
0.44475892 -0.13529943 0.73403239
0.45542422 -0.13538244 0.73380774
0.4650031 -0.13475445 0.73221964
0.4748756 -0.1348791 0.73227155
0.4800795 -0.13473859 0.73179996
-0.53199875 -0.12670398 0.73173338
-0.52623588 -0.12647776 0.73122829
-0.25517991 -0.12496985 0.73847258
-0.24537668 -0.1250698 0.73907
-0.2353964 -0.1250862 0.7391625
-0.22641791 -0.12378934 0.7393226
-0.21505392 -0.12267031 0.73944008
-0.20718201 -0.1236228 0.73954606
-0.16307324 -0.12422505 0.73645115
-0.15870807 -0.1250416 0.73164481
-0.14299574 -0.12298527 0.73839712
0.24723698 -0.1248814 0.73839349
0.2547197 -0.12481581 0.73632753
0.26515231 -0.12529171 0.73539525
0.2751886 -0.12520975 0.73468858
0.28470084 -0.12508135 0.73375553
0.29497802 -0.12536059 0.7351175
0.30503815 -0.12528017 0.73438919
0.31479275 -0.12511997 0.73349786
0.32527447 -0.12556708 0.73561668
0.33468735 -0.12522504 0.73388726
0.34169367 -0.12390152 0.73196512
0.35740221 -0.12554331 0.73209023
0.36577886 -0.12520306 0.73376328
0.37501022 -0.12514862 0.73235226
0.38492262 -0.12502608 0.7339738
0.39556831 -0.12523229 0.73452657
0.40433142 -0.125237 0.7313959
0.41499272 -0.12543164 0.73149389
0.42488733 -0.12465192 0.73285359
0.43492717 -0.12469114 0.73220998
0.44539356 -0.12515351 0.73406816
0.4550229 -0.12503256 0.73325843
0.46463159 -0.12506793 0.73225528
0.47487196 -0.12531535 0.73287392
0.48021069 -0.1278381 0.73200005
-0.53224325 -0.11342846 0.73128712
-0.52833587 -0.11210682 0.73051792
-0.5116815 -0.11686125 0.73068184
-0.25475934 -0.11489099 0.73844218
-0.24505921 -0.11518486 0.73929101
-0.23533908 -0.11505058 0.7389847
-0.22528104 -0.11502582 0.73882484
-0.21540172 -0.11509328 0.73926032
-0.20709738 -0.11461185 0.7393828
-0.1635576 -0.11580946 0.73558164
-0.15911163 -0.11540662 0.73033339
-0.14465998 -0.1142268 0.73375767
0.24627526 -0.11455722 0.73764592
0.25483608 -0.11506812 0.73453516
0.26495633 -0.11534064 0.73429763
0.27519318 -0.11537369 0.73416436
0.2844654 -0.11497647 0.73214996
0.29500476 -0.11506059 0.73331565
0.30552649 -0.11541315 0.73481572
0.31475922 -0.1151778 0.73342276
0.32504624 -0.11508116 0.73342037
0.3346239 -0.11517351 0.73268014
0.34547135 -0.11529201 0.7346977
0.35427499 -0.11453423 0.73258436
0.36532739 -0.11508508 0.73493659
0.37513784 -0.11480696 0.73302269
0.38511655 -0.11538493 0.73339951
0.39504513 -0.11509843 0.73329353
0.40433547 -0.11492317 0.73201805
0.41487136 -0.11402796 0.73280513
0.42545217 -0.11516558 0.73458076
0.43501484 -0.11561827 0.73432982
0.44559795 -0.11500343 0.7350083
0.45489806 -0.11477949 0.73195368
0.46644077 -0.11506679 0.73144156
0.47391063 -0.11429351 0.73213953
-0.53262424 -0.10517246 0.73251665
-0.52513456 -0.10450393 0.73129362
-0.51453912 -0.10416733 0.73083037
-0.23508842 -0.10497447 0.73878115
-0.22516911 -0.10497079 0.73845983
-0.21531387 -0.10505364 0.73932821
-0.20828685 -0.10769704 0.73942399
-0.18856469 -0.10632225 0.73974997
-0.16630776 -0.10399097 0.73825598
-0.14530239 -0.10555232 0.73471582
0.23839581 -0.10336733 0.73957407
0.2452911 -0.10495219 0.73798651
0.25477564 -0.10511746 0.73504364
0.2645835 -0.10508161 0.73357373
0.27499312 -0.10523611 0.73334241
0.28491676 -0.10523016 0.73331261
0.29499421 -0.10532657 0.73328388
0.30500588 -0.10513917 0.7332679
0.31491345 -0.105093 0.73319811
0.32487139 -0.10555285 0.73369479
0.33491245 -0.10485181 0.73394972
0.3451308 -0.10521764 0.73203301
0.35495934 -0.10514075 0.7331627
0.36543137 -0.10498163 0.73447001
0.3747707 -0.1053272 0.73305619
0.38506711 -0.10500511 0.73334926
0.39496657 -0.10560961 0.73336178
0.40448093 -0.10507841 0.73347908
0.41547519 -0.10516856 0.73491579
0.42409405 -0.10526171 0.73171014
0.4356522 -0.10508177 0.73185492
0.44636554 -0.10512642 0.73630756
0.45489374 -0.10509539 0.73291194
0.46509278 -0.10520911 0.73317045
0.47543257 -0.10538691 0.73370355
0.48039547 -0.10223947 0.7327143
-0.5322234 -0.095079318 0.73158777
-0.52482849 -0.094995148 0.73094767
-0.5149554 -0.095001623 0.73098749
-0.50519234 -0.094851427 0.73084486
-0.25501907 -0.094913065 0.73800254
-0.24525344 -0.095019877 0.73905915
-0.23512624 -0.095152669 0.73890108
-0.22549242 -0.095317394 0.73875272
-0.21277249 -0.096137218 0.73973209
-0.19199984 -0.090630896 0.73975009
-0.16549063 -0.095076039 0.73624301
-0.15938193 -0.092688151 0.73031253
-0.14562252 -0.094733231 0.73260117
0.22980647 -0.090630896 0.73975003
0.23691326 -0.097300582 0.73969442
0.24603413 -0.095128201 0.73685092
0.25499865 -0.095019691 0.73461229
0.2649526 -0.095092155 0.73449773
0.27517447 -0.095368363 0.73382002
0.2851432 -0.095379554 0.73389745
0.29537979 -0.095068678 0.73463672
0.30535609 -0.095043115 0.73372132
0.3148849 -0.095166229 0.73165435
0.32486945 -0.095135644 0.7328977
0.33536282 -0.0950495 0.73468471
0.34461531 -0.094491467 0.7321043
0.3546097 -0.095061839 0.73230636
0.36526015 -0.095313706 0.73414004
0.3749778 -0.095139243 0.7337355
0.3850947 -0.094802439 0.73358667
0.39485756 -0.094860785 0.7321806
0.40514609 -0.095537119 0.73352778
0.4155792 -0.095254175 0.73457414
0.42498782 -0.095059201 0.73363739
0.43457767 -0.09467186 0.73243743
0.44524637 -0.095048927 0.73417938
0.45496756 -0.095399953 0.73373502
0.46517253 -0.095079668 0.73409796
0.47469461 -0.095180765 0.73266125
0.48045513 -0.098024905 0.73262501
-0.53278303 -0.084475018 0.7333644
-0.52489281 -0.085274667 0.73206019
-0.51490057 -0.085238464 0.7312572
-0.50488901 -0.085068941 0.73103255
-0.23717481 -0.085134096 0.73958164
-0.22678436 -0.085483424 0.73970002
-0.21003433 -0.084621444 0.73975003
-0.20814528 -0.084680639 0.73968327
-0.19249673 -0.088125087 0.73973435
-0.189996 -0.088627748 0.73975003
-0.16521305 -0.085116699 0.73470837
-0.15229312 -0.083385386 0.73067844
-0.14601079 -0.08496961 0.73329252
0.22766012 -0.084823608 0.73845953
0.2345396 -0.0841759 0.73891264
0.24556994 -0.084880151 0.73735446
0.25461388 -0.084734835 0.73450953
0.26524448 -0.085054688 0.73573166
0.27492997 -0.085048489 0.73473865
0.28510645 -0.084887885 0.73453701
0.29532161 -0.084840603 0.7345354
0.30545253 -0.085210741 0.73527157
0.3149159 -0.085069664 0.73518229
0.32447451 -0.084795274 0.73467624
0.3351123 -0.084638871 0.73673201
0.34477749 -0.085343271 0.73359013
0.35409519 -0.086896524 0.73116678
0.36562157 -0.085290983 0.73487359
0.37450656 -0.084616713 0.73590368
0.3847312 -0.085092612 0.73522151
0.39501292 -0.084957965 0.73324978
0.40492785 -0.08515387 0.73249727
0.41490385 -0.085269399 0.7335161
0.42527583 -0.085044652 0.73444289
0.43518597 -0.085397795 0.73264414
0.44496375 -0.085008189 0.73191172
0.45502663 -0.085367396 0.73370123
0.46454296 -0.08522924 0.73276657
0.4727158 -0.085510932 0.7317639
-0.53289157 -0.075164363 0.73367155
-0.52453893 -0.075344346 0.73261702
-0.515136 -0.07522507 0.73199141
-0.5053671 -0.07493706 0.73169219
-0.4685694 -0.074955702 0.73560005
-0.26521939 -0.074882373 0.73680806
-0.25464499 -0.074774742 0.73526001
-0.24502081 -0.074763075 0.73707938
-0.23524226 -0.074834324 0.73837876
-0.22601782 -0.074213229 0.7384091
-0.21520491 -0.070653565 0.73936373
-0.20498331 -0.070585057 0.7396
-0.19894576 -0.07057552 0.73950005
-0.16338804 -0.075526468 0.73254257
-0.15605327 -0.075203285 0.73033869
-0.14632066 -0.077424169 0.7321015
0.22828567 -0.07572592 0.73878145
0.23491547 -0.074978858 0.7384876
0.24490145 -0.074721098 0.7366271
0.25468668 -0.074730225 0.73479122
0.26549751 -0.074828066 0.73746037
0.27506816 -0.074603319 0.73577672
0.28511709 -0.07483843 0.7360363
0.29526693 -0.074888587 0.73527831
0.30454656 -0.074969769 0.73405129
0.31467882 -0.074723564 0.73465294
0.32499716 -0.075057082 0.73341656
0.33506879 -0.074989371 0.73262912
0.34496906 -0.075410523 0.73155904
0.35481128 -0.072718315 0.73215884
0.36522472 -0.074463986 0.73409629
0.37533817 -0.074511804 0.73534471
0.38503155 -0.074774303 0.73425007
0.39486131 -0.075140975 0.73422027
0.40441167 -0.075148016 0.7331425
0.41527972 -0.075079814 0.73334557
0.42536956 -0.074792393 0.73261756
0.43481639 -0.075504981 0.7320987
0.44534883 -0.07500641 0.7338208
0.4550682 -0.07529638 0.73291564
0.46440569 -0.075451724 0.73248535
0.47513753 -0.074677125 0.73404896
0.48087379 -0.071596429 0.73411363
-0.53276312 -0.064699046 0.73313385
-0.5247643 -0.064888693 0.73186022
-0.515279 -0.064475842 0.73208821
-0.50581014 -0.065123416 0.73333037
-0.49482629 -0.064737186 0.73208553
-0.46902767 -0.066761009 0.7365123
-0.26488429 -0.064631209 0.73416239
-0.25512573 -0.064917326 0.7349568
-0.24530037 -0.06474521 0.73583984
-0.23506817 -0.064810559 0.73657322
-0.22489561 -0.064897284 0.73755783
-0.21494102 -0.064909667 0.73767495
-0.20495068 -0.064911 0.73767972
-0.19563636 -0.064502485 0.73874438
-0.18960422 -0.063958526 0.7396875
-0.1646847 -0.067232706 0.73340392
-0.15371676 -0.065182328 0.73036909
-0.14780261 -0.063605368 0.73206258
-0.13415761 -0.063110217 0.73910588
-0.12515864 -0.064128116 0.73816276
-0.11527992 -0.062235024 0.7386049
-0.10487336 -0.063188836 0.73816407
-0.095231242 -0.063880727 0.73821139
-0.084876493 -0.063189328 0.73776543
-0.074920185 -0.063980147 0.73719531
-0.064795338 -0.064569898 0.73591918
0.22949776 -0.06882906 0.73956251
0.23518071 -0.066932879 0.7389043
0.24574973 -0.065681629 0.73614413
0.2550503 -0.064532608 0.73568362
0.26526216 -0.064928457 0.73724759
0.27509138 -0.064796805 0.73530358
0.28510264 -0.064601295 0.73548383
0.294882 -0.064915851 0.73556393
0.30474722 -0.064869389 0.73550719
0.31501535 -0.065245606 0.73522991
0.32533556 -0.064966753 0.73382163
0.33485818 -0.064797506 0.73219889
0.34468642 -0.064982787 0.7332201
0.3553592 -0.064700723 0.73519242
0.36511159 -0.06474375 0.73580271
0.37506187 -0.064742945 0.7357794
0.3856675 -0.064631402 0.73451698
0.39463481 -0.064973019 0.73223215
0.40537772 -0.064829141 0.73398161
0.41506457 -0.064668015 0.73451704
0.4253698 -0.065057032 0.73557639
0.4346199 -0.064656176 0.73444682
0.4449614 -0.064838931 0.73332751
0.45563132 -0.065141499 0.73314351
0.46420482 -0.064702995 0.73204345
0.47494084 -0.064595692 0.7346676
0.48151633 -0.064714439 0.7355085
-0.53290123 -0.056163661 0.73368043
-0.52440578 -0.055782739 0.73343527
-0.51524878 -0.055264406 0.73494458
-0.50492698 -0.055096712 0.73497045
-0.4951809 -0.054696713 0.73525029
-0.48472658 -0.055405755 0.73549992
-0.24450532 -0.057415374 0.73819894
-0.23560169 -0.057785451 0.73853493
-0.22445305 -0.058069024 0.73856258
-0.21494536 -0.057450835 0.73837996
-0.20460826 -0.055096272 0.73778486
-0.19689536 -0.057364799 0.7386539
-0.16408966 -0.053953871 0.7322064
-0.15250675 -0.055859659 0.73035413
-0.1479737 -0.054655999 0.73198038
-0.13547254 -0.056400467 0.73892266
-0.12424003 -0.055878066 0.73840207
-0.11506738 -0.05493651 0.73791486
-0.10494398 -0.054867182 0.73700494
-0.095042013 -0.054915212 0.73764008
-0.085029572 -0.054900836 0.73744547
-0.075064123 -0.054914735 0.73764008
-0.065190911 -0.055101432 0.73659813
0.24940518 -0.058876663 0.73845005
0.25529742 -0.055125434 0.73823082
0.264319 -0.058079604 0.73879558
0.27492478 -0.057666253 0.7380445
0.28581578 -0.057597648 0.73826158
0.29375365 -0.058091592 0.73821664
0.30598059 -0.059555192 0.73941666
0.31497982 -0.058556851 0.73899084
0.32497126 -0.05870796 0.73797119
0.33493763 -0.058297496 0.73535025
0.34514531 -0.054576721 0.73436284
0.35452056 -0.054783691 0.73391676
0.36490682 -0.054902382 0.73607767
0.37469944 -0.054834682 0.73592889
0.38523328 -0.054985091 0.73707449
0.39499387 -0.054714374 0.73715228
0.40472275 -0.055715363 0.73786008
0.41427648 -0.05631578 0.73746246
0.42501962 -0.057949126 0.73794514
0.43467674 -0.058620092 0.73815632
0.44540742 -0.05833092 0.73603499
0.45543227 -0.057258148 0.73665386
0.46541026 -0.057357665 0.73694342
0.4750624 -0.055180985 0.73710656
0.48211962 -0.054589633 0.73732311
-0.51156181 -0.047676407 0.73031825
-0.28493631 -0.044628043 0.73268485
-0.27509245 -0.044773109 0.73437601
-0.26497215 -0.044874687 0.73568618
-0.25498632 -0.044747997 0.73577768
-0.24483675 -0.044213567 0.73508811
-0.23501922 -0.043919023 0.73611587
-0.22496611 -0.044335082 0.73597521
-0.21508396 -0.044075277 0.73625296
-0.20485513 -0.044826049 0.73608899
-0.19493644 -0.044197302 0.73705071
-0.18502329 -0.044288468 0.73672462
-0.17481114 -0.043898877 0.73568028
-0.16498758 -0.044575971 0.73283911
-0.154008 -0.04408545 0.73063052
-0.14504662 -0.044744905 0.73415476
-0.13533247 -0.044056226 0.73765242
-0.12489354 -0.044441357 0.73852849
-0.11499257 -0.04492145 0.73743743
-0.10513663 -0.044978451 0.73837256
-0.096387058 -0.04622836 0.73938775
-0.085164197 -0.044991821 0.73860741
-0.075652801 -0.044620752 0.73877364
-0.065936901 -0.043127481 0.73917192
0.24601498 -0.044159316 0.73907083
0.25570762 -0.045844283 0.73943049
0.26492026 -0.043428168 0.73933589
0.27463061 -0.043285109 0.73922849
0.28753588 -0.043845858 0.73877406
0.2936039 -0.044088803 0.73811859
0.34516487 -0.044689327 0.73365909
0.35463104 -0.044689972 0.73370326
0.364979 -0.045531418 0.73776805
0.37483412 -0.046086174 0.73862517
0.38469291 -0.047366504 0.73950011
0.39514557 -0.04505536 0.73906153
0.40393257 -0.044801179 0.73876643
0.47962201 -0.049549527 0.73950005
0.48248476 -0.046659965 0.73868769
-0.53114951 -0.036498323 0.73131251
-0.52507442 -0.036621392 0.73284256
-0.51423073 -0.03626306 0.73258507
-0.50530177 -0.036969669 0.7329911
-0.49500522 -0.0350434 0.73431724
-0.48499596 -0.03486523 0.73312879
-0.47515801 -0.034649983 0.73357189
-0.3047322 -0.035757415 0.73194325
-0.2850168 -0.035448816 0.73396516
-0.26481372 -0.034826268 0.73522776
-0.25498918 -0.034825146 0.73576742
-0.24512982 -0.034957677 0.73440337
-0.23488611 -0.034685414 0.73303694
-0.22496617 -0.03479439 0.73452264
-0.21496046 -0.034710489 0.73488361
-0.20507114 -0.034855004 0.73615044
-0.19523282 -0.034901001 0.73682404
-0.18506861 -0.034849904 0.73569494
-0.17509872 -0.034866858 0.73609549
-0.16506381 -0.035498485 0.7345835
-0.15470187 -0.034718305 0.73224247
-0.14490291 -0.034719441 0.73418146
-0.13510187 -0.03502892 0.73730856
-0.12492646 -0.034920122 0.73710787
-0.11492754 -0.034914479 0.73702264
-0.10494253 -0.03491389 0.7369979
-0.094992697 -0.034926318 0.73724502
-0.084906675 -0.034885243 0.73637789
-0.07499449 -0.034913577 0.73698783
-0.065093733 -0.0349565 0.73789269
0.24679741 -0.039168246 0.73962504
0.25931907 -0.039543837 0.73962504
0.26566711 -0.035219021 0.73956144
0.27586675 -0.034963612 0.73976135
0.28613022 -0.039183293 0.73957145
0.29314947 -0.038636867 0.73904693
0.3068468 -0.032124057 0.73910493
0.31432211 -0.031982213 0.73907644
0.3217051 -0.030784147 0.73968756
0.33777586 -0.031455293 0.73911119
0.34474927 -0.03475143 0.73451239
0.35444045 -0.034627188 0.73364145
0.36334234 -0.034020055 0.73871058
0.39596403 -0.038793366 0.73963749
0.40582857 -0.034795806 0.73951322
0.41349155 -0.031795003 0.73945194
0.42737997 -0.031139115 0.73942316
0.43069053 -0.031037122 0.73975003
0.46817896 -0.030807706 0.73939288
0.47503504 -0.03102153 0.739375
0.48286927 -0.03107327 0.73952276
-0.49254128 -0.025965538 0.73833352
-0.48462677 -0.024899064 0.73588353
-0.47534874 -0.024849243 0.73712522
-0.46469373 -0.025028598 0.73692602
-0.45476881 -0.024635954 0.73686862
-0.44511342 -0.025031015 0.73754048
-0.43610296 -0.025226768 0.73834026
-0.21103659 -0.029464889 0.73800004
-0.19292009 -0.029106518 0.73905003
-0.18814443 -0.029124571 0.73887503
-0.17540793 -0.029524775 0.73949999
-0.1545462 -0.029460896 0.73790002
-0.14386116 -0.028408766 0.73752886
-0.1345425 -0.025087655 0.73633963
-0.1247544 -0.024904614 0.73609781
-0.11467426 -0.024881799 0.73538995
-0.10470523 -0.024879672 0.73533714
-0.094760358 -0.024884047 0.73543268
-0.084716804 -0.024859643 0.73473227
-0.074835956 -0.024885111 0.73542523
-0.06490998 -0.024898706 0.73581523
0.26672757 -0.025212433 0.73913246
0.27298564 -0.026520837 0.73949409
0.28600001 -0.024981568 0.73916882
0.30560517 -0.026756348 0.73899209
0.31446293 -0.026400698 0.7385906
0.32307068 -0.02800351 0.73961902
0.33768436 -0.027988119 0.73912001
0.3453773 -0.025552666 0.73715979
0.35419652 -0.026616277 0.7364741
0.36513618 -0.026827013 0.73875439
0.37447268 -0.025796268 0.73953128
0.38952407 -0.026524052 0.73958331
0.39328691 -0.025723588 0.73926932
0.40717593 -0.027206637 0.73902035
0.41426361 -0.027724508 0.73927641
0.42491788 -0.026802234 0.73918843
0.43067423 -0.027524028 0.73954999
0.45102939 -0.028933812 0.73975003
0.46735194 -0.027697995 0.73925012
0.47528738 -0.02835842 0.73928136
0.48283681 -0.027942408 0.73927391
-0.49176872 -0.014543199 0.73571318
-0.48472393 -0.014908079 0.73468512
-0.47538173 -0.015211469 0.73508978
-0.45500532 -0.015046944 0.73597592
-0.44531426 -0.014787257 0.73727387
-0.1336937 -0.015044907 0.73667872
-0.12473918 -0.014935352 0.73599249
-0.11461312 -0.014916646 0.73500252
-0.10478888 -0.014933166 0.73592496
-0.094661757 -0.014907255 0.73466772
-0.084742479 -0.014999562 0.73374224
-0.074723348 -0.014769846 0.73275238
-0.06475164 -0.014896248 0.7340076
0.2285472 -0.010834473 0.73945838
0.23226422 -0.011228912 0.73945451
0.2467126 -0.012930992 0.73964393
0.25754371 -0.012083941 0.7393229
0.26539513 -0.014604748 0.73872238
0.27509677 -0.012664718 0.73855698
0.28519848 -0.014566254 0.73775297
0.29509833 -0.012771538 0.7381925
0.30458778 -0.012312782 0.73865569
0.31533605 -0.012173983 0.73726475
0.32054767 -0.01244862 0.736
-0.49175277 -0.0046067936 0.73425013
-0.48541221 -0.0048482134 0.73533553
-0.475063 -0.0050118593 0.73352206
-0.13349876 -0.0051864493 0.73616111
-0.12471239 -0.0049252133 0.73552221
-0.11465172 -0.004964055 0.73525995
-0.10504386 -0.0049797962 0.73772234
-0.094856761 -0.0049710376 0.73617256
-0.084715001 -0.0048437477 0.73350006
-0.074786983 -0.0050517456 0.7333762
-0.064696305 -0.0049522407 0.73334253
0.2281184 -0.0056534144 0.73902035
0.23275523 -0.0056141298 0.73911226
0.24813986 -0.0020747543 0.73964578
0.25759354 -0.0056467876 0.73928213
0.26458362 -0.0049800179 0.7375477
0.27495411 -0.0050542969 0.73747933
0.28474018 -0.0048903241 0.73570842
0.2948902 -0.0049783811 0.73713344
0.3045525 -0.0049759424 0.73637742
0.31481299 -0.005224261 0.73527896
0.32047912 -0.0094149159 0.73287505
-0.49318802 0.0052066292 0.73502833
-0.48508877 0.0048254007 0.73448527
-0.13420063 0.0053140461 0.73534977
-0.12482126 0.004874093 0.73467451
-0.11474919 0.0049926681 0.73588997
-0.10503918 0.005003816 0.73770005
-0.094982348 0.0050028306 0.73714256
-0.084750488 0.0049870042 0.73501498
-0.074801594 0.004988635 0.73506236
-0.064792693 0.0049853008 0.73448241
0.22865032 0.0080231382 0.73965621
0.2463868 0.0054894504 0.7392602
0.25508103 0.005855592 0.73904753
0.26511079 0.0050155907 0.73901486
0.27490935 0.0050121862 0.73844743
0.28487149 0.0050033797 0.73706377
0.29500729 0.0050410577 0.73630071
0.30492896 0.0049472386 0.73500687
0.31466365 0.0050317412 0.73408705
0.32014662 0.0064646751 0.73325002
-0.49228773 0.014726639 0.73391652
-0.48502588 0.014896657 0.73288339
-0.14035454 0.01896878 0.73687506
-0.13473433 0.01488151 0.73501658
-0.12471455 0.014955705 0.73585761
-0.11451617 0.014925809 0.73438501
-0.104793 0.014956554 0.73595482
-0.094846286 0.014958227 0.73610991
-0.084711462 0.014932135 0.73469019
-0.07490927 0.01496208 0.73613298
-0.064911768 0.014956995 0.73582757
0.22764976 0.015239273 0.73884046
0.23478895 0.016262751 0.73914379
0.24537104 0.015060287 0.73960418
0.25481164 0.015004147 0.73817754
0.26516715 0.015023316 0.73917252
0.27499142 0.015012191 0.73866743
0.28461871 0.015721306 0.73958099
0.29497445 0.014928609 0.7379635
0.30497316 0.014962338 0.73630631
0.31334445 0.014705658 0.73381811
-0.49197206 0.024259653 0.73369026
-0.48497233 0.024917934 0.7333588
-0.47533652 0.024988566 0.73283178
-0.14004503 0.020419076 0.73525006
-0.13520527 0.024814384 0.73409069
-0.12508708 0.024852298 0.73485029
-0.11469593 0.024963124 0.73484784
-0.10481657 0.024929514 0.73611754
-0.094664127 0.024881668 0.73469508
-0.084668152 0.024866614 0.73430765
-0.074804351 0.024893114 0.73511988
-0.064914547 0.024917942 0.73585486
0.2276659 0.025120737 0.73896301
0.23492618 0.025009448 0.73852015
0.24486579 0.02603001 0.73936409
0.25494927 0.02501086 0.73857504
0.26479915 0.024996715 0.73814499
0.27476162 0.024994005 0.73805255
0.2851831 0.025095597 0.73822677
0.29464412 0.024839757 0.73692739
0.30476242 0.024953371 0.73579431
0.31316334 0.024797669 0.73447543
-0.14009266 0.033371702 0.73550004
-0.13500178 0.034860775 0.73430437
-0.12534849 0.03477893 0.73373759
-0.11510528 0.034657948 0.7321412
-0.10498895 0.034694519 0.73320514
-0.094892435 0.034796413 0.73414749
-0.08479628 0.034834202 0.73364234
-0.074681953 0.034807306 0.7333864
-0.064780831 0.034809057 0.73434478
0.22755402 0.034839656 0.73824102
0.23504671 0.034857932 0.73815018
0.24519838 0.035046849 0.73933274
0.25506994 0.035028953 0.73892492
0.2649667 0.035012897 0.73861468
0.27487555 0.035000455 0.73835492
0.28502861 0.034958448 0.73746824
0.29483515 0.03501172 0.73673123
0.30488765 0.034810673 0.73576075
0.3127121 0.034281041 0.73454803
-0.50206375 0.043447744 0.73750001
-0.14003375 0.04992453 0.73000002
-0.13554443 0.042581063 0.73122925
-0.12491236 0.041912414 0.7311846
-0.1142787 0.041543264 0.73035508
-0.10462204 0.044316385 0.73032665
-0.094336294 0.042678926 0.73072547
-0.085449427 0.044704325 0.73181105
-0.074977398 0.04460635 0.73195422
-0.064708516 0.04470231 0.73352271
0.22859524 0.043141812 0.73893481
0.23485245 0.044496112 0.73828703
0.24546564 0.044633824 0.7391361
0.25488073 0.044998232 0.73837984
0.26469466 0.044967413 0.73785502
0.27466547 0.045037229 0.73736417
0.2851176 0.044837996 0.73733193
0.29535115 0.044917841 0.73705262
0.30499756 0.044748574 0.73632127
0.31192613 0.045181021 0.73631704
-0.50147772 0.055726528 0.73481256
-0.49705949 0.055921506 0.73087502
-0.48446426 0.058971018 0.73807508
-0.47650218 0.059038918 0.73714286
-0.44566208 0.058890283 0.73637497
-0.14338697 0.058333218 0.73112506
-0.11197972 0.057862852 0.73039138
-0.10538352 0.055551641 0.73068243
-0.090598278 0.05430162 0.73000002
-0.085219271 0.055042736 0.73114127
-0.074997328 0.054955676 0.73174554
-0.064908057 0.054831643 0.73198551
0.24799617 0.051636629 0.73941672
0.25602064 0.05388568 0.73892772
0.2650474 0.055030007 0.73883742
0.2745004 0.0548205 0.73706383
0.28464353 0.054481007 0.73864442
0.29490638 0.053402644 0.73818165
0.30476433 0.053902511 0.73753774
0.31148416 0.053269163 0.73788482
-0.14144084 0.062544376 0.73422503
-0.13628358 0.064425401 0.73549998
-0.12393516 0.064141765 0.73057151
-0.11466821 0.063017987 0.73108709
-0.10519814 0.062931277 0.73182511
-0.095128201 0.063437693 0.73092312
-0.085453279 0.063139357 0.73226887
-0.075352877 0.062967606 0.73179901
-0.064889759 0.06325683 0.73140919
0.25830653 0.064657107 0.73920465
0.26515204 0.064938307 0.73774326
0.27477574 0.064754397 0.73568237
0.28304332 0.064702339 0.73792189
0.26828915 0.07202106 0.73867506
0.2746442 0.072841324 0.73684585
0.28214228 0.072544023 0.73840004
0.33738053 0.2036927 0.73701918
0.2009047 0.22876836 0.73300004
0.33118373 0.23835883 0.7335
0.3330811 0.24116607 0.73550004
-0.14268233 -0.41393059 0.74873346
-0.12042661 -0.41427022 0.74950004
0.23900315 -0.41294074 0.74938893
0.24473478 -0.41286513 0.74766272
0.32539132 -0.41255823 0.74646205
-0.1412621 -0.40206832 0.74924999
-0.11872522 -0.40336049 0.74894118
0.22941121 -0.40330455 0.74953854
0.23446694 -0.40480256 0.74927801
0.24660605 -0.40529001 0.74784809
-0.17448227 -0.39484346 0.74938178
-0.1652004 -0.39477554 0.74917072
0.2293988 -0.39309999 0.74960423
0.23564263 -0.39481068 0.74910474
0.24526006 -0.39467576 0.74807465
0.45536315 -0.39552042 0.74717075
0.46471557 -0.39601454 0.7477321
0.47502702 -0.39544913 0.74678439
0.49085999 -0.39330405 0.74879551
0.22969766 -0.38417318 0.74950022
0.24537162 -0.38498327 0.74810469
0.49069703 -0.3893117 0.74850005
0.22943144 -0.3762334 0.74975008
0.23591454 -0.37787285 0.74932367
-0.24505499 -0.19704217 0.74021482
-0.22485423 -0.18513343 0.74059993
-0.21541889 -0.18552676 0.7405827
-0.15999259 -0.18233672 0.74000001
-0.24085546 -0.1724758 0.74025005
-0.23491549 -0.1749125 0.74089313
-0.22541116 -0.17565967 0.74041468
-0.21461996 -0.17474377 0.74065566
-0.24124019 -0.16534935 0.74019986
-0.2370048 -0.1668127 0.74035609
-0.22329567 -0.16535977 0.74025011
-0.21472794 -0.16572876 0.74092603
-0.20488791 -0.16493252 0.74153453
-0.18495627 -0.16466706 0.74164259
-0.16609435 -0.16504778 0.74175984
-0.23531368 -0.15305887 0.7404182
-0.22450003 -0.15500449 0.74058259
-0.21466091 -0.15269879 0.74080735
-0.204956 -0.15509209 0.74075001
-0.1950568 -0.15466879 0.7418499
-0.16663098 -0.15469038 0.74231625
-0.14175138 -0.15445952 0.74221641
-0.24033992 -0.14760368 0.74000001
-0.23482327 -0.14579317 0.74030918
-0.22424804 -0.14542408 0.74044776
-0.21497957 -0.14501102 0.74125266
-0.20477234 -0.14528002 0.74078125
-0.1949109 -0.14473735 0.74171144
-0.18522267 -0.14479202 0.74270993
-0.17518672 -0.14481127 0.74280226
-0.16673401 -0.14483875 0.74198043
-0.224639 -0.13538466 0.74030864
-0.21493396 -0.13544643 0.74109507
-0.20487678 -0.13543478 0.74103004
-0.19490531 -0.13483684 0.74133593
-0.18512891 -0.13468105 0.74214625
-0.17486556 -0.13484751 0.74200785
-0.16682273 -0.13477479 0.74211687
-0.14173847 -0.1351463 0.74218577
-0.12493376 -0.13480955 0.74311018
-0.22351773 -0.12734105 0.74031103
-0.21484692 -0.12785672 0.74047935
-0.20345092 -0.12598066 0.74032205
-0.19511098 -0.12520589 0.74157441
-0.18487234 -0.12503615 0.74150288
-0.17503138 -0.12525953 0.74159199
-0.16774465 -0.12599283 0.74137133
-0.14128165 -0.12584639 0.74069172
-0.13488196 -0.12472839 0.74271965
-0.12490977 -0.12472282 0.74295992
-0.11496694 -0.12485358 0.74373031
-0.10488465 -0.12484332 0.74367493
-0.07565733 -0.12481395 0.74349707
0.24251963 -0.12527457 0.74134439
-0.20215128 -0.1159554 0.74031508
-0.1947616 -0.11532216 0.74072784
-0.18466195 -0.11528101 0.7404629
-0.17475328 -0.11535981 0.74096739
-0.16823351 -0.11453698 0.74044997
-0.14112002 -0.11534334 0.7405563
-0.13505672 -0.1147515 0.74319071
-0.12490966 -0.11466084 0.74295014
-0.1148916 -0.11470661 0.74324524
-0.10481084 -0.11469262 0.74314207
-0.094731264 -0.11467573 0.74303514
-0.084744528 -0.11477726 0.74369538
-0.075649269 -0.11473282 0.74342167
0.23513077 -0.11499652 0.74213457
0.24165675 -0.11607952 0.74075776
-0.2101053 -0.10118163 0.74000001
-0.20407307 -0.10469284 0.74054831
-0.19497959 -0.10530784 0.74083596
-0.18391754 -0.10497121 0.74055433
-0.17478384 -0.10537014 0.74070197
-0.16852318 -0.10782184 0.74024999
-0.14155029 -0.10466032 0.74149346
-0.13522364 -0.10479965 0.74435025
-0.12504345 -0.10471568 0.74375272
-0.11508673 -0.10481982 0.74450004
-0.10482223 -0.10463882 0.74321508
-0.094730765 -0.1046151 0.74303758
-0.084726676 -0.10468797 0.74355263
-0.075787321 -0.10485978 0.74478155
0.22732237 -0.10568001 0.74184805
0.23389879 -0.10584816 0.74059367
-0.22092241 -0.092957482 0.74019992
-0.21602818 -0.0945599 0.74021196
-0.20482726 -0.095279619 0.74085242
-0.19482563 -0.095397048 0.74067289
-0.18491316 -0.095359355 0.74147493
-0.17515789 -0.095228419 0.74144948
-0.16901287 -0.090661526 0.74000001
-0.14238296 -0.095229596 0.74192709
-0.13510703 -0.094791211 0.74416345
-0.12503251 -0.094636619 0.74368024
-0.11489028 -0.094924085 0.74365163
-0.10498697 -0.094726354 0.7443924
-0.094792321 -0.094611265 0.74349493
-0.084591456 -0.094974801 0.74281329
0.22783889 -0.095113255 0.74267858
0.23465602 -0.095248349 0.74057013
0.24153951 -0.093592852 0.74063468
-0.46338797 -0.081049323 0.74290907
-0.45508924 -0.081689283 0.74548614
-0.4457967 -0.081827775 0.74659628
-0.4380604 -0.080724113 0.74075001
-0.23277994 -0.084933929 0.74025005
-0.224343 -0.085123979 0.74033242
-0.21508101 -0.085266091 0.74078178
-0.2041034 -0.085291833 0.74055898
-0.19512437 -0.084516779 0.74092084
-0.18511605 -0.085115112 0.74199498
-0.17487259 -0.085319385 0.74146736
-0.16872622 -0.086876146 0.74034095
-0.14164622 -0.085538752 0.74130267
-0.13499933 -0.084768437 0.74325764
-0.12489597 -0.084808566 0.74325269
-0.11491074 -0.08480297 0.74300706
-0.10497466 -0.084962815 0.74367672
-0.094756924 -0.085021377 0.74323016
-0.084663518 -0.084990151 0.74299306
-0.074977912 -0.084971264 0.74539757
0.22697593 -0.085538276 0.74237502
0.23726755 -0.08852414 0.74027783
0.24127129 -0.089074939 0.74034381
-0.46812648 -0.075839527 0.74417394
-0.43698484 -0.075155914 0.74529546
-0.23365825 -0.079640463 0.74000001
-0.22224511 -0.077187702 0.74079686
-0.21513772 -0.075857863 0.74174142
-0.20511431 -0.07564906 0.74242693
-0.19482803 -0.075491741 0.74347538
-0.1747833 -0.078364655 0.74311244
-0.1686011 -0.074686334 0.74284726
-0.14300449 -0.076389603 0.74384147
-0.13503829 -0.075401813 0.74568141
-0.12505339 -0.075545162 0.74562103
-0.1151061 -0.074796855 0.74555546
-0.10479971 -0.075408101 0.74363536
-0.094820902 -0.075340211 0.74470478
-0.085115679 -0.075080112 0.74553192
-0.075709559 -0.074963138 0.74555993
-0.067370534 -0.07090982 0.74652791
0.22714053 -0.073236026 0.7434091
-0.47226459 -0.062917545 0.74714035
-0.46870586 -0.067311183 0.74286109
-0.43680912 -0.064749956 0.74615002
-0.19200955 -0.068191931 0.74047059
-0.18561491 -0.065416843 0.74286175
-0.16904043 -0.066022702 0.7445358
-0.14355932 -0.065332942 0.74309731
-0.13581021 -0.067541808 0.74103045
-0.12388863 -0.069146432 0.74087501
-0.11514883 -0.0669761 0.74192852
-0.10543492 -0.068384916 0.74127942
-0.095049724 -0.068798326 0.74072218
-0.085216545 -0.068360403 0.74173385
-0.075620435 -0.069251917 0.74108821
-0.069884069 -0.069715403 0.74100006
0.22816177 -0.06632448 0.74388421
0.23408642 -0.062382508 0.74112505
0.24363098 -0.062077191 0.74258065
-0.47514272 -0.057710417 0.74349993
-0.4659313 -0.057016212 0.74379689
-0.45466879 -0.056712922 0.74814582
-0.442099 -0.054532852 0.74540907
-0.43423745 -0.05602124 0.7451964
-0.42892337 -0.057173379 0.74230003
-0.41276088 -0.056046896 0.74144286
-0.40488917 -0.056175634 0.74348879
-0.3967185 -0.056368396 0.74754548
-0.20459288 -0.051586859 0.74000001
-0.19418168 -0.053948615 0.74253684
-0.18912487 -0.056759369 0.74421436
-0.17246179 -0.050001808 0.74625003
-0.16876288 -0.053051341 0.74183339
-0.14690347 -0.0541237 0.74422234
-0.13431966 -0.05175871 0.74028772
-0.12771389 -0.052615881 0.74038643
-0.061994243 -0.050964605 0.74066669
0.24650507 -0.054446016 0.74406749
0.25086054 -0.05325336 0.74053133
0.26588291 -0.053764645 0.74127865
0.27470762 -0.052995522 0.74094182
0.28444225 -0.053161178 0.74100459
0.29530355 -0.053655408 0.74191362
0.30474335 -0.056451622 0.74370968
0.31390154 -0.056461778 0.74334621
0.324067 -0.057071328 0.74183345
0.33429548 -0.057352956 0.74517864
0.34253222 -0.055615414 0.74566668
0.40803158 -0.05220671 0.74026674
0.41481566 -0.051807676 0.74077082
0.43605813 -0.055902917 0.74280834
0.44411749 -0.055654712 0.74280143
0.45374179 -0.055508934 0.74309212
0.46694902 -0.053997763 0.74356067
0.47196737 -0.051070746 0.74265206
-0.19538757 -0.049330585 0.74121672
-0.1803418 -0.04866318 0.74125004
-0.1765572 -0.048866283 0.74434376
-0.13442944 -0.049238283 0.74013227
-0.12722673 -0.049050208 0.74020457
-0.072802663 -0.047082223 0.74006242
-0.064507112 -0.046936054 0.74096304
0.23823598 -0.045156468 0.74573636
0.2427482 -0.046349466 0.74110228
0.25357887 -0.042395759 0.74014759
0.26587188 -0.048345972 0.74048311
0.275583 -0.047529716 0.74035949
0.28336722 -0.046250738 0.74048215
0.29681414 -0.047874045 0.74128944
0.30121174 -0.046916958 0.74537498
0.36810431 -0.041016821 0.74039298
0.3754099 -0.041289181 0.7404781
0.38539755 -0.04252563 0.74035621
0.39026675 -0.043072876 0.74004173
0.40900853 -0.0461572 0.74014282
0.41466969 -0.045168437 0.74155629
0.42121011 -0.045126878 0.74341375
0.47478443 -0.045174807 0.74356872
0.48255679 -0.042198367 0.74053001
-0.54160261 -0.035300132 0.74517506
-0.5369451 -0.034887984 0.7447778
-0.51494896 -0.033570901 0.74603128
-0.50571966 -0.033553254 0.74296671
-0.49875438 -0.030546652 0.74000001
-0.39448765 -0.031466182 0.7429558
-0.16659699 -0.031973142 0.74602085
0.24443288 -0.034793753 0.74242133
0.25484374 -0.03513588 0.74059635
0.26430544 -0.034705937 0.7403087
0.2848933 -0.034326881 0.74043846
0.29516351 -0.034166731 0.74136531
0.30265012 -0.034561448 0.74221879
0.31757501 -0.033856824 0.74115628
0.32548955 -0.032743435 0.74110705
0.33505145 -0.033766549 0.74192864
0.34170908 -0.037608419 0.74242306
0.3674041 -0.035966419 0.74098599
0.37517139 -0.035226647 0.7423088
0.38492343 -0.035127562 0.74152189
0.39449903 -0.034247465 0.74050599
0.40431708 -0.035007033 0.74016273
0.41541335 -0.03626816 0.74096942
0.42372856 -0.034532081 0.74165958
0.43560049 -0.032876596 0.74167055
0.44519904 -0.032613151 0.74225962
0.45516264 -0.033557221 0.74295425
0.46529323 -0.034410596 0.74396932
0.4751046 -0.036398597 0.74295992
0.48347828 -0.036238167 0.74140251
-0.50215435 -0.028468613 0.74325001
-0.49728298 -0.0261291 0.74072832
-0.43180248 -0.024612311 0.74054396
-0.42831868 -0.024135513 0.74030685
-0.41282436 -0.025998136 0.7404331
-0.39818665 -0.025559768 0.74405509
-0.19695464 -0.028984159 0.74105006
-0.18401432 -0.029032739 0.74267304
-0.17484558 -0.028707925 0.74430948
-0.16318572 -0.028680783 0.74357504
-0.15568765 -0.027895687 0.74323523
0.23677653 -0.024846379 0.74688852
0.24486004 -0.025209723 0.7423982
0.25495908 -0.024962349 0.74110347
0.26179338 -0.024719933 0.74055338
0.27690056 -0.02395572 0.74033821
0.2818909 -0.024745366 0.74032491
0.29542789 -0.025120186 0.74140054
0.30372965 -0.02277226 0.74062753
0.31580454 -0.021637134 0.74107689
0.32556716 -0.024073666 0.74110007
0.33409247 -0.024462152 0.74096811
0.34286365 -0.02177286 0.7424348
0.35788921 -0.022967923 0.74550003
0.36484993 -0.022311948 0.7431615
0.37535757 -0.024287885 0.74067867
0.38499689 -0.025153875 0.74104267
0.39599144 -0.024089644 0.74071085
0.40429461 -0.023967288 0.74146533
0.41576374 -0.023548819 0.74127275
0.4241282 -0.022236411 0.74106872
0.43562382 -0.024901938 0.7420938
0.44499314 -0.025351787 0.74221307
0.45486027 -0.025584321 0.74146569
0.46410972 -0.024827007 0.74222368
0.47535774 -0.024300288 0.74210519
0.48308492 -0.023959322 0.74102676
-0.49842808 -0.01557036 0.74250001
-0.39847493 -0.015732324 0.74459505
0.22803214 -0.013830602 0.74520946
0.2352145 -0.015849778 0.74298644
0.24401331 -0.015943829 0.74117815
0.25442278 -0.015890472 0.74087703
0.26159117 -0.018395374 0.74058926
0.27550161 -0.017657684 0.74067849
0.28150761 -0.018310787 0.74073082
0.29523113 -0.017757539 0.74124438
0.30525881 -0.01731186 0.74127501
0.31455669 -0.01723839 0.74238682
0.32471958 -0.016962234 0.7465148
0.33206537 -0.01910032 0.74513888
0.35302809 -0.019657524 0.74500006
0.3676756 -0.019702379 0.74670005
0.37465334 -0.019575065 0.74187505
0.38495886 -0.019613547 0.7433334
0.22588196 -0.0046841572 0.74496818
0.23721603 -0.0042542219 0.74029863
0.24431077 -0.005242011 0.74028534
0.25369495 -0.0048021465 0.74026513
-0.39808512 0.004997063 0.7441116
0.22628947 0.0049327123 0.74191779
0.23521657 0.0051357108 0.740848
0.24180055 0.00361016 0.74021953
0.25564733 0.0018490957 0.74024993
-0.39879587 0.015348629 0.74472898
0.23638576 0.011685936 0.74024993
0.24541236 0.015027451 0.74012107
-0.40063941 0.028604003 0.74292308
-0.39886263 0.023947747 0.74437505
0.24592189 0.023747608 0.74014515
0.23535247 0.049531396 0.740125
0.24246132 0.048815005 0.74015003
-0.50448 0.058656931 0.74252784
-0.48914462 0.059174724 0.74062502
-0.1470626 0.059665948 0.74050003
0.23496814 0.052283663 0.74224991
0.24512483 0.054390598 0.74247533
0.25291982 0.057753228 0.74101269
0.28748319 0.058554422 0.74027276
0.29657507 0.058077902 0.74176311
0.30019397 0.058152325 0.74037504
-0.094655342 0.06740769 0.74265796
-0.084162347 0.067458175 0.74252951
-0.065528199 0.067671187 0.74325001
0.25400242 0.065464377 0.74187332
0.26095399 0.069644809 0.74000001
0.28739688 0.06312003 0.74131256
0.26404968 0.073724881 0.74172002
-0.051878002 -0.42044452 0.75650001
-0.047799874 -0.42061123 0.75680006
0.10818454 -0.42032272 0.75665009
0.11123498 -0.42069519 0.75787503
-0.54681647 -0.41646311 0.75025004
-0.42205974 -0.4105902 0.75065631
-0.41913858 -0.41038096 0.75058341
-0.15508521 -0.41413003 0.75194335
-0.14682174 -0.41296536 0.75024992
-0.12052035 -0.41281614 0.75008339
-0.11511427 -0.41423523 0.7516551
-0.10510783 -0.41493496 0.75320429
-0.095013328 -0.41489923 0.7541669
-0.085015453 -0.41463283 0.75405693
-0.075205348 -0.41455087 0.7527467
-0.065230884 -0.41435483 0.75215554
-0.055381358 -0.41526383 0.75623059
-0.045008007 -0.41510364 0.75637364
0.10845141 -0.41916591 0.75789291
0.11011763 -0.41932309 0.75725007
0.22801894 -0.41404286 0.75422573
0.23388484 -0.41418409 0.75044072
-0.4303253 -0.40667745 0.75000006
-0.42437646 -0.40732256 0.75093126
-0.41529307 -0.40739617 0.75045723
-0.40899354 -0.40870833 0.75000006
-0.36745715 -0.40302566 0.75031
-0.16327631 -0.40503579 0.751149
-0.15455791 -0.40488955 0.75139147
-0.14547494 -0.40567744 0.75092375
-0.11407147 -0.40525913 0.75106192
-0.10509964 -0.40493879 0.75196546
-0.094976164 -0.40485305 0.75273597
-0.08471451 -0.40497828 0.75450003
-0.075081073 -0.40498155 0.7531392
-0.065095745 -0.4046841 0.75293791
-0.055442985 -0.40484738 0.75553232
-0.04541035 -0.40501821 0.75581533
0.22736593 -0.40543073 0.75378066
0.23749954 -0.40536496 0.75017303
0.24255092 -0.40492529 0.75046694
-0.36814159 -0.39921018 0.75014287
-0.174729 -0.39632174 0.75008005
-0.16452487 -0.39832813 0.75000006
-0.15412216 -0.39725301 0.75057548
-0.14746088 -0.39741507 0.75043756
-0.1139551 -0.39459577 0.75111526
-0.10512612 -0.39486423 0.7516728
-0.09495417 -0.3950128 0.75213778
-0.084988363 -0.39515683 0.75356132
-0.075030215 -0.39507082 0.75323403
-0.064930841 -0.39488399 0.75393564
-0.054902807 -0.3948572 0.75545293
-0.044933483 -0.3947081 0.7538777
0.22705641 -0.39544907 0.75283498
0.23197487 -0.39753833 0.75000006
-0.11357588 -0.3857699 0.75084484
-0.1047371 -0.38506308 0.75141668
-0.094942816 -0.38520733 0.7526921
-0.085063964 -0.38516286 0.7520467
-0.075225122 -0.38491121 0.75134605
-0.064897828 -0.38504863 0.75445682
-0.055088852 -0.38522592 0.75668424
0.22738858 -0.38496205 0.75239801
-0.51568192 -0.37197188 0.75236422
-0.48544812 -0.37143359 0.75169522
-0.4645859 -0.37138656 0.75223255
-0.45524046 -0.37172735 0.7525993
-0.44670528 -0.3705813 0.75241077
-0.43405372 -0.37105054 0.75215787
-0.42503402 -0.37169448 0.75323188
-0.41531703 -0.3717013 0.75543314
-0.40638787 -0.37081519 0.75232005
-0.39289394 -0.37106791 0.75266069
-0.38730863 -0.37098444 0.75253123
-0.37166032 -0.3706699 0.75567502
-0.36425897 -0.37028658 0.75315911
-0.35537112 -0.37081039 0.75448889
-0.34617221 -0.37039584 0.75315624
-0.33509994 -0.37064388 0.75556254
-0.3282744 -0.37069011 0.75405002
-0.31064159 -0.37041551 0.75787503
-0.30833378 -0.37048474 0.75766677
-0.1126324 -0.37449643 0.75050962
-0.1045002 -0.3757593 0.75079077
-0.094891123 -0.37532353 0.75228339
-0.084981009 -0.37495318 0.75117886
-0.075364195 -0.37499839 0.75061774
-0.066081442 -0.37520298 0.7532922
-0.05437436 -0.37536746 0.75670272
0.22645076 -0.37521774 0.75217324
0.23459175 -0.37415019 0.75037336
0.24233305 -0.37590256 0.75007761
-0.5255748 -0.36722058 0.7521776
-0.51531243 -0.3677038 0.75255561
