# .PCD v0.7 - Point Cloud Data file format
VERSION 0.7
FIELDS x y z
SIZE 4 4 4
TYPE F F F
COUNT 1 1 1
WIDTH 1369
HEIGHT 1
VIEWPOINT 0 0 0 1 0 0 0
POINTS 1369
DATA ascii
-0.41669005 -0.066765875 0.72881907
-0.40479812 -0.06756559 0.72907662
-0.39992744 -0.069150992 0.72975004
-0.37175888 -0.06964501 0.72975004
-0.36928797 -0.06964501 0.72975004
-0.34094661 -0.063463837 0.72946161
-0.33513358 -0.059376746 0.72932148
-0.52478892 -0.04507244 0.72777361
-0.51499289 -0.04506905 0.72845292
-0.50487208 -0.04476824 0.72926569
-0.4908576 -0.041979983 0.72974998
-0.48492736 -0.043956045 0.72974992
-0.47308454 -0.046128664 0.72954535
-0.467381 -0.045513444 0.72937775
-0.44360116 -0.046117388 0.72974998
-0.4334875 -0.041086532 0.72967511
-0.4033885 -0.041148394 0.72960418
-0.50446421 -0.039985638 0.72941667
-0.43329021 -0.038225859 0.72934258
-0.40388605 -0.038476128 0.72929347
-0.46085072 -0.0029522784 0.72970843
-0.45837498 -0.0020730712 0.7292639
-0.48836017 0.0049121389 0.72312504
-0.4713183 0.0071952096 0.72908336
-0.46461484 0.0054759588 0.72815222
-0.4536863 0.0042227553 0.72938967
-0.44793263 0.0071752556 0.72894835
-0.49167749 0.012357803 0.72950006
-0.48804268 0.016184939 0.72410721
-0.47169879 0.013949982 0.72878128
-0.46576542 0.013769371 0.72750366
-0.45116824 0.012851943 0.72949994
-0.44814485 0.011674365 0.72920316
-0.49135646 0.025835931 0.72800004
-0.48916817 0.025835751 0.72577786
-0.46251312 0.02489271 0.72839868
-0.45572811 0.025222927 0.72730303
-0.49065971 0.038876247 0.72305
-0.48535147 0.035242241 0.72557914
-0.47523695 0.036284145 0.72692418
-0.46483952 0.035694383 0.72736967
-0.45445639 0.035030983 0.72569937
-0.44595668 0.037683561 0.727754
-0.43563306 0.038408823 0.72784877
-0.42503238 0.038154252 0.72798336
-0.41614255 0.039350651 0.72855961
-0.4043189 0.039626617 0.7292031
-0.4912757 0.045972642 0.72321743
-0.48540711 0.045015089 0.72432065
-0.47537616 0.04516321 0.7249822
-0.4649758 0.045015559 0.72339296
-0.45501122 0.044956174 0.7225911
-0.44588032 0.045208097 0.72572798
-0.43495163 0.045217432 0.72543681
-0.42455781 0.045075979 0.72422808
-0.41495514 0.045083769 0.72504151
-0.40504146 0.045278415 0.72623688
-0.39928538 0.045365315 0.72825897
-0.49292111 0.053444561 0.72700787
-0.48496485 0.053378381 0.72532153
-0.47480854 0.053699419 0.72454661
-0.46473774 0.054090239 0.72432655
-0.45502344 0.054292589 0.7238642
-0.44581789 0.053869396 0.72586584
-0.43474704 0.054084193 0.72570169
-0.42473593 0.054425634 0.72528791
-0.41508505 0.054279409 0.72544813
-0.40540043 0.053600248 0.72688639
-0.39923838 0.052437942 0.72714585
-0.46460593 -0.28495035 0.73590666
-0.47468802 -0.27505687 0.73609519
-0.45469043 -0.26485136 0.7368958
-0.44496915 -0.26516894 0.73702598
-0.4243907 -0.26455116 0.73664397
-0.46485007 -0.25497183 0.7365182
-0.4546977 -0.25509575 0.73601228
-0.44473234 -0.2550782 0.73643798
-0.43495446 -0.25485107 0.73726594
-0.47513744 -0.24463925 0.7357384
-0.46481282 -0.24478751 0.73482901
-0.45517969 -0.24524365 0.73641318
-0.4451738 -0.24505387 0.73698539
-0.43473858 -0.24474515 0.73706973
-0.41478789 -0.24470188 0.73772287
-0.4548063 -0.23509873 0.736875
-0.44531357 -0.23485149 0.73785532
-0.43491712 -0.23510467 0.73793727
-0.41454881 -0.23492859 0.73827052
-0.37523466 -0.2346451 0.73872477
-0.38555887 -0.22866367 0.73915392
-0.37381384 -0.22884341 0.73908758
-0.45490277 -0.2127137 0.73535234
-0.44549519 -0.21290652 0.73700458
-0.4342064 -0.21246423 0.73676699
-0.42490691 -0.21219043 0.73865354
-0.41531652 -0.21198149 0.73855895
-0.40485269 -0.21252386 0.73712128
-0.39539307 -0.21235633 0.73789442
-0.38437614 -0.21118115 0.73823971
-0.37530392 -0.21138343 0.73699999
-0.36593589 -0.21129498 0.73847008
-0.35464892 -0.21153304 0.73874128
-0.34411338 -0.21141446 0.73908716
-0.33910906 -0.21096355 0.739375
-0.31305525 -0.2114356 0.73933339
-0.48504239 -0.20471397 0.73331821
-0.4749403 -0.20459875 0.73278606
-0.46511865 -0.2050328 0.73407686
-0.45479211 -0.20449294 0.733787
-0.44448268 -0.20507938 0.73356974
-0.43500972 -0.20514588 0.73550963
-0.42508036 -0.20470174 0.73574466
-0.41535273 -0.20469888 0.73586494
-0.40485039 -0.20490313 0.73448467
-0.39517704 -0.20483729 0.73508972
-0.38542473 -0.20479426 0.73662639
-0.37497228 -0.20520273 0.73626816
-0.36464304 -0.20486601 0.7363447
-0.35498318 -0.20489441 0.73698276
-0.34454927 -0.20456028 0.73588824
-0.33567268 -0.20468453 0.73874503
-0.32512566 -0.20401695 0.73887163
-0.31491333 -0.20470329 0.73829997
-0.30555415 -0.20431471 0.7386207
-0.29519358 -0.20247418 0.73908716
-0.28732663 -0.20125651 0.73957145
-0.27035406 -0.20152144 0.73962498
-0.26536536 -0.20204189 0.7392804
-0.49480551 -0.19523542 0.73160255
-0.48495114 -0.19479705 0.73218739
-0.47544199 -0.19476312 0.73409659
-0.4651103 -0.19481972 0.73338997
-0.45523021 -0.19477324 0.73408258
-0.44463041 -0.19517355 0.73277193
-0.43501693 -0.1950767 0.73326933
-0.42450961 -0.19445379 0.73294556
-0.41524082 -0.19504687 0.73471785
-0.40512508 -0.19466908 0.73361129
-0.39494047 -0.19465962 0.7334246
-0.38510892 -0.19516987 0.73507088
-0.37500662 -0.19511279 0.7357139
-0.36473387 -0.19529974 0.73585916
-0.35497206 -0.19495803 0.73632395
-0.34464464 -0.19509538 0.73599559
-0.33500746 -0.19483787 0.73785448
-0.32493472 -0.19470154 0.73764235
-0.31490901 -0.19502074 0.73842847
-0.30485442 -0.19481657 0.73823148
-0.29502726 -0.19485256 0.73807251
-0.28529608 -0.19507408 0.73892558
-0.27484435 -0.19402188 0.73919344
-0.26508296 -0.19524372 0.73922712
-0.25334197 -0.19231617 0.73957145
-0.49496129 -0.18525976 0.73202848
-0.48484224 -0.18512096 0.73287743
-0.4749501 -0.18490382 0.7331267
-0.46508583 -0.18471433 0.7335301
-0.45525315 -0.18475746 0.73369539
-0.44498581 -0.1848197 0.73331571
-0.43444037 -0.18488078 0.73256969
-0.42523381 -0.18513262 0.73451883
-0.41505054 -0.18475983 0.73423171
-0.40516934 -0.18490681 0.73432183
-0.39496124 -0.18508215 0.73406386
-0.3851485 -0.18504706 0.73523575
-0.37501982 -0.18526855 0.73546934
-0.36494511 -0.18525313 0.73551947
-0.35523927 -0.1850813 0.7364136
-0.34472191 -0.18503241 0.73641431
-0.33487433 -0.18478318 0.7377674
-0.32511145 -0.18495053 0.73725563
-0.31521806 -0.18460396 0.73624742
-0.30499184 -0.18459518 0.73701423
-0.29503253 -0.18486305 0.73808497
-0.28484458 -0.1847394 0.73758751
-0.27521619 -0.18498327 0.7385599
-0.49300441 -0.175877 0.73071235
-0.4851878 -0.17478685 0.73223025
-0.47492546 -0.17482145 0.7325353
-0.46512079 -0.17473264 0.73350018
-0.45489815 -0.174768 0.73377794
-0.44524306 -0.17500088 0.73464698
-0.43485439 -0.17510927 0.73374778
-0.42530704 -0.17492412 0.73422891
-0.41521206 -0.17487644 0.73422247
-0.4049325 -0.17515007 0.73463583
-0.39496294 -0.17489025 0.73475993
-0.38462692 -0.17513162 0.73468298
-0.37485883 -0.17533235 0.73583466
-0.36488828 -0.17533123 0.73582518
-0.35511732 -0.17488274 0.7364645
-0.34485567 -0.17508085 0.73668188
-0.33494097 -0.17480288 0.73760575
-0.32471034 -0.17468101 0.73691458
-0.31485164 -0.17496671 0.73739743
-0.30502671 -0.17490606 0.7376942
-0.29476026 -0.17470966 0.7374053
-0.28500238 -0.17484894 0.73799491
-0.27490366 -0.1747828 0.73771989
-0.49483097 -0.1644717 0.73162639
-0.48492867 -0.16545074 0.73115313
-0.47505915 -0.16461009 0.73282409
-0.4648768 -0.16494334 0.73274738
-0.45495096 -0.16470701 0.7330426
-0.44505292 -0.16494618 0.7337597
-0.43505809 -0.16468018 0.73382515
-0.42520556 -0.16511562 0.73439294
-0.41490883 -0.16500294 0.73361307
-0.40525413 -0.1649285 0.73419642
-0.39487925 -0.16519943 0.73507488
-0.38478959 -0.16540366 0.7355026
-0.37489706 -0.16521628 0.73559695
-0.36505017 -0.16512561 0.73635077
-0.35522881 -0.16483185 0.73609591
-0.34447613 -0.16492547 0.73587257
-0.33481652 -0.16477741 0.73764253
-0.32475317 -0.16482201 0.73742604
-0.31482562 -0.1647716 0.73761511
-0.30513036 -0.16493268 0.73833489
-0.29491532 -0.16480911 0.73779017
-0.28501999 -0.16486408 0.73803985
-0.27524099 -0.1649982 0.73863256
-0.2649321 -0.16498782 0.73891407
-0.25494653 -0.16504456 0.73952144
-0.48441771 -0.15429474 0.73135948
-0.47542229 -0.15507321 0.73309845
-0.46461543 -0.15507516 0.73133832
-0.45494631 -0.15458243 0.73205435
-0.44489765 -0.15480843 0.73300505
-0.43474373 -0.15497196 0.73284036
-0.42493463 -0.15493841 0.73459411
-0.41483754 -0.15516889 0.7348932
-0.40491515 -0.15512405 0.73412246
-0.39519581 -0.15539584 0.73522127
-0.38501057 -0.1550457 0.73473662
-0.37502301 -0.15529409 0.73453623
-0.3653498 -0.15491487 0.73575753
-0.3548491 -0.1550872 0.73590887
-0.3450458 -0.15501688 0.73697597
-0.33491039 -0.15501276 0.7371071
-0.32469997 -0.15460229 0.73681301
-0.31473374 -0.15474106 0.73740256
-0.3051441 -0.15494241 0.73836493
-0.29498476 -0.1548807 0.73785114
-0.28509462 -0.15484424 0.73809665
-0.27529681 -0.1550291 0.73877722
-0.26565999 -0.15574661 0.73895168
-0.2546221 -0.15532658 0.73906255
-0.4949564 -0.14471713 0.73215973
-0.48487434 -0.14487316 0.7324484
-0.47539261 -0.14470868 0.73240471
-0.46468306 -0.14486575 0.73062086
-0.45552406 -0.14502531 0.73203063
-0.44498789 -0.14483619 0.73228234
-0.4350639 -0.14469895 0.73250818
-0.42504078 -0.14504106 0.73326468
-0.41526756 -0.1451478 0.73432767
-0.40506801 -0.14499649 0.73377764
-0.39527467 -0.14525576 0.73488021
-0.3848232 -0.14500503 0.73348188
-0.37518221 -0.14482455 0.73324245
-0.36534715 -0.14514361 0.73393553
-0.35465452 -0.1451304 0.73424315
-0.3448253 -0.14508507 0.73561698
-0.33463648 -0.14503151 0.73554617
-0.32451651 -0.14476617 0.73613685
-0.31485376 -0.14480975 0.73768252
-0.30514809 -0.1449649 0.73737377
-0.29494059 -0.14459108 0.73634338
-0.28488845 -0.14475617 0.73560661
-0.27528417 -0.14479811 0.7377851
-0.2657198 -0.1444872 0.73886782
-0.25473073 -0.14467667 0.73895341
-0.49495497 -0.13487239 0.73180783
-0.48486522 -0.13456801 0.7315048
-0.47481737 -0.1346918 0.73154318
-0.46504563 -0.13476473 0.73165256
-0.45529598 -0.1347657 0.73207563
-0.44497439 -0.13515459 0.73156136
-0.43493775 -0.13483036 0.73236388
-0.42494693 -0.13494793 0.73343134
-0.41521195 -0.13515308 0.73405272
-0.40493634 -0.13504498 0.73345685
-0.39503068 -0.13522349 0.73442495
-0.38496631 -0.1351817 0.73420477
-0.37491578 -0.13514242 0.7339952
-0.36482063 -0.13508581 0.73368502
-0.35513592 -0.13524665 0.73432165
-0.34516078 -0.13534243 0.73530006
-0.33459014 -0.13537206 0.73464441
-0.32516402 -0.13504584 0.73590887
-0.31497389 -0.13464127 0.73690838
-0.30535275 -0.13497016 0.7378369
-0.29492489 -0.13499203 0.7363717
-0.2845698 -0.13494688 0.73693848
-0.27490702 -0.13483392 0.73773003
-0.2650995 -0.13492531 0.73824739
-0.25530556 -0.13495566 0.73917943
-0.51305604 -0.12533833 0.7303009
-0.50498432 -0.12482525 0.73115784
-0.49493599 -0.12454231 0.73080438
-0.48407891 -0.12479053 0.73134613
-0.47512007 -0.12488856 0.73214835
-0.46494138 -0.12487338 0.73103577
-0.45459738 -0.12478756 0.73055422
-0.44513535 -0.12476742 0.73134792
-0.43486843 -0.12477931 0.73123968
-0.42454726 -0.12489383 0.73216265
-0.41526622 -0.12523189 0.73414993
-0.40473869 -0.12505196 0.73309749
-0.39463156 -0.12515217 0.73368484
-0.38492969 -0.12533714 0.7345382
-0.37512901 -0.12529695 0.7347787
-0.36522087 -0.12528867 0.7344898
-0.35503998 -0.12529336 0.73504096
-0.34512511 -0.12510595 0.73608124
-0.33471915 -0.12474525 0.73446023
-0.32533664 -0.12491485 0.73553115
-0.3152886 -0.12477806 0.73673803
-0.30509037 -0.12447016 0.73615456
-0.2948432 -0.1252401 0.73572767
-0.28504407 -0.12470053 0.73756003
-0.27466062 -0.12473211 0.73707271
-0.26523015 -0.12499323 0.73860717
-0.50485474 -0.11472758 0.73059142
-0.49492201 -0.11474672 0.73080152
-0.48492944 -0.11497322 0.73154545
-0.47500846 -0.11497184 0.73183221
-0.46539035 -0.11466142 0.73191315
-0.45474505 -0.11468653 0.73062932
-0.44498014 -0.11482483 0.73174566
-0.4349393 -0.11490863 0.73255527
-0.42478424 -0.11521301 0.73297632
-0.41517356 -0.1152656 0.73398632
-0.40484181 -0.11515581 0.73328435
-0.39467967 -0.11519448 0.73368949
-0.38478079 -0.115252 0.73374772
-0.37519896 -0.1153542 0.73454988
-0.36491814 -0.1152821 0.73379064
-0.35480574 -0.11526829 0.7342546
-0.34492162 -0.11498243 0.73562336
-0.33494788 -0.11504286 0.73606873
-0.32538787 -0.1146877 0.73665017
-0.31528163 -0.11463933 0.73634809
-0.30543581 -0.11466815 0.73691708
-0.2948814 -0.11498287 0.73577279
-0.285023 -0.11481424 0.73700219
-0.27460948 -0.11473045 0.73693269
-0.26488456 -0.11484149 0.73764503
-0.5051322 -0.10504906 0.73074502
-0.49429622 -0.10629861 0.73027033
-0.48521835 -0.10516336 0.73051077
-0.47519195 -0.10479577 0.7309832
-0.46504557 -0.10521689 0.73183191
-0.45474941 -0.10478352 0.73218173
-0.44486719 -0.10527401 0.73186857
-0.43513551 -0.10505789 0.73260659
-0.42498589 -0.10529647 0.73376828
-0.41536251 -0.10537724 0.73431957
-0.40487307 -0.10527604 0.73281944
-0.39476952 -0.10512749 0.73336822
-0.3847478 -0.1053008 0.73378748
-0.37532359 -0.10551462 0.73452085
-0.36482644 -0.10492866 0.73280138
-0.35507482 -0.10536209 0.73344356
-0.34503469 -0.10523617 0.73408365
-0.33493218 -0.10504793 0.7345711
-0.32508561 -0.10476253 0.73568225
-0.31515923 -0.10474981 0.73625284
-0.30518016 -0.10462859 0.73603714
-0.29496947 -0.10471849 0.73668659
-0.28502685 -0.10491368 0.73806262
-0.27490512 -0.1048647 0.73772246
-0.26500154 -0.10490043 0.7379725
-0.25492558 -0.10509615 0.73849988
-0.2450715 -0.10503332 0.73950821
-0.4940559 -0.092854239 0.73039269
-0.48546681 -0.094434053 0.73052615
-0.47478858 -0.095006876 0.73172194
-0.46500421 -0.094998695 0.73191756
-0.45464367 -0.095206536 0.73104417
-0.44498354 -0.095068894 0.73272818
-0.4350231 -0.095306143 0.73300487
-0.42491743 -0.09534689 0.73365003
-0.41475278 -0.095292501 0.73324162
-0.40482548 -0.095177777 0.73234975
-0.39495462 -0.095330589 0.73273772
-0.38502485 -0.095176846 0.73337024
-0.37512708 -0.095273651 0.73246217
-0.36477897 -0.095090419 0.73189944
-0.35515434 -0.095091738 0.73444629
-0.34506404 -0.0949184 0.73484039
-0.33503252 -0.094885319 0.73576176
-0.32536477 -0.094790787 0.73568308
-0.3151789 -0.094791092 0.73495239
-0.30500951 -0.094606459 0.73562455
-0.29487434 -0.094713777 0.73645002
-0.28485444 -0.094864666 0.73761261
-0.27493563 -0.094888963 0.73780984
-0.2651172 -0.094951183 0.73829496
-0.49522009 -0.085147515 0.7313748
-0.48558205 -0.08556404 0.73088962
-0.47399995 -0.085354231 0.73089796
-0.46551436 -0.084888242 0.73368853
-0.45495859 -0.085593492 0.73209816
-0.44510511 -0.085860662 0.73259842
-0.43479383 -0.085316285 0.734056
-0.42516562 -0.085509852 0.73444629
-0.41488135 -0.08539363 0.73346967
-0.40513662 -0.085257068 0.73329586
-0.39492163 -0.085429005 0.73272377
-0.38536426 -0.085346386 0.73306763
-0.37496057 -0.085222252 0.73284328
-0.365006 -0.08503177 0.73376763
-0.35532725 -0.084766708 0.73541814
-0.34474894 -0.08455649 0.73572797
-0.33488336 -0.084727854 0.73613417
-0.32493302 -0.08469335 0.73572165
-0.31560045 -0.085499823 0.73674476
-0.30480403 -0.084634192 0.73586529
-0.29537046 -0.085536815 0.73736316
-0.28463385 -0.085325368 0.73787808
-0.27487925 -0.084989555 0.7379005
-0.26515356 -0.084965914 0.7383973
-0.25506341 -0.08493714 0.73813498
-0.24534912 -0.084953003 0.73923248
-0.49505162 -0.075319253 0.73103625
-0.48750979 -0.075944938 0.73037487
-0.47176093 -0.076344706 0.73108518
-0.43166432 -0.078679331 0.73725003
-0.42458478 -0.075942986 0.73235476
-0.41470131 -0.077524051 0.73150486
-0.40468571 -0.077542238 0.73149544
-0.39527509 -0.075214416 0.73263001
-0.38482812 -0.075317107 0.73205233
-0.37515596 -0.075976647 0.73173535
-0.36503914 -0.07498157 0.73278123
-0.35487884 -0.075026572 0.73391569
-0.34487653 -0.075219095 0.73444825
-0.33599332 -0.074985139 0.7343697
-0.32935336 -0.071290612 0.73271877
-0.27365562 -0.074568979 0.73695785
-0.4855698 -0.063020177 0.73212498
-0.47432172 -0.064161688 0.73361409
-0.42632368 -0.064776897 0.73133063
-0.4144454 -0.06296286 0.73201817
-0.4045516 -0.062656581 0.73218006
-0.39508465 -0.065028362 0.7331813
-0.38509732 -0.065071255 0.73385811
-0.37512222 -0.064713784 0.7331636
-0.36475489 -0.065102033 0.73191744
-0.35510728 -0.064924382 0.73257184
-0.34592637 -0.065592565 0.73156321
-0.33544481 -0.066364609 0.73152643
-0.32865551 -0.065332063 0.73237509
-0.27416924 -0.064886093 0.73579931
-0.47538066 -0.053243577 0.73320937
-0.46493015 -0.052382674 0.73382586
-0.45487267 -0.052783914 0.73363233
-0.44467896 -0.052497361 0.73235232
-0.43551153 -0.051283926 0.73313236
-0.42387921 -0.054341998 0.73503804
-0.41619074 -0.054724846 0.73680466
-0.40509471 -0.053968783 0.73640925
-0.39452931 -0.054128811 0.73569977
-0.38557169 -0.05406706 0.73732352
-0.37502572 -0.054225139 0.73635125
-0.36498857 -0.053971834 0.73547447
-0.35533234 -0.055675402 0.7372787
-0.34413248 -0.055038538 0.73580468
-0.33492252 -0.054700755 0.73523259
-0.32621327 -0.051444441 0.73807502
-0.31470519 -0.050243158 0.73500001
-0.30416289 -0.050311517 0.736
-0.27248284 -0.05634952 0.73854548
-0.26514292 -0.055939812 0.73830003
-0.25494826 -0.056404196 0.73813474
-0.50361979 -0.045487855 0.73032135
-0.49543774 -0.044741452 0.73089081
-0.48499638 -0.045024104 0.73025304
-0.47624865 -0.044379465 0.73034787
-0.46365383 -0.044523757 0.73082674
-0.4549917 -0.044523779 0.73110712
-0.44500256 -0.044551279 0.73053801
-0.43516853 -0.045512598 0.73100263
-0.4250004 -0.044554412 0.73173535
-0.41527107 -0.044626269 0.73249495
-0.40506434 -0.045317523 0.73177773
-0.39477044 -0.044468284 0.73161215
-0.38537967 -0.044738535 0.73349023
-0.37491211 -0.044553611 0.7324208
-0.36484426 -0.044658165 0.73215187
-0.35495433 -0.044729345 0.73274982
-0.34474218 -0.044619486 0.73271096
-0.33492893 -0.044695694 0.73426342
-0.32528606 -0.044773813 0.73550272
-0.31476668 -0.04468384 0.73273349
-0.30490944 -0.044455826 0.73234499
-0.29544252 -0.044720054 0.73414004
-0.46525082 -0.034780476 0.73394692
-0.45491689 -0.034884628 0.73347205
-0.44520783 -0.034692612 0.73355198
-0.43487266 -0.033453047 0.73342675
-0.42538306 -0.035046149 0.73339695
-0.41545519 -0.03473907 0.73383504
-0.404686 -0.034062967 0.7341454
-0.39550808 -0.036048859 0.73468971
-0.38505968 -0.035935737 0.7352373
-0.37511593 -0.036031079 0.73387122
-0.3649931 -0.035847146 0.73244184
-0.35495129 -0.035770711 0.73308629
-0.34464419 -0.035920296 0.73395479
-0.33500654 -0.036020882 0.73462152
-0.32534885 -0.035880264 0.73554635
-0.31515756 -0.035748947 0.73387671
-0.2951155 -0.035054412 0.73482317
-0.27507779 -0.035004538 0.73536772
-0.42346147 -0.025085866 0.73890799
-0.41693124 -0.024572877 0.73916262
-0.40378457 -0.024094718 0.73966074
-0.46419168 -0.01466775 0.73292035
-0.43500927 -0.015146172 0.73715752
-0.4250482 -0.014939143 0.73774248
-0.41524804 -0.01461128 0.73839194
-0.40327796 -0.014467052 0.73923284
-0.39848775 -0.012542664 0.73907954
-0.46520746 -0.0053393934 0.73101181
-0.45460388 -0.005332408 0.73256046
-0.44539618 -0.0049262736 0.73504943
-0.43499598 -0.0048725554 0.73580605
-0.42473152 -0.0048536565 0.73636436
-0.41496181 -0.0051963977 0.737854
-0.40501937 -0.0048347469 0.73848224
-0.39747775 -0.0053433985 0.7387591
-0.47583467 0.0044915923 0.73256695
-0.46308029 0.0042258985 0.73040003
-0.45592511 0.0049243877 0.73054314
-0.44464022 0.0042514838 0.73225278
-0.43495688 0.0051159798 0.73337609
-0.42510763 0.0049204794 0.73588598
-0.41475558 0.0050738808 0.73694462
-0.40472972 0.0049108625 0.73826176
-0.39878526 0.0015140519 0.73967856
-0.47673002 0.015365554 0.73162919
-0.46276385 0.015684342 0.73142207
-0.4554913 0.015598094 0.73129278
-0.44447541 0.015396267 0.73210955
-0.43523437 0.01474046 0.73449749
-0.42516077 0.01501797 0.73537844
-0.41509685 0.014799308 0.73632199
-0.40521351 0.015249666 0.73780203
-0.39952666 0.018728273 0.73925006
-0.46780014 0.024296679 0.73127145
-0.45215756 0.024486985 0.73144233
-0.44481975 0.024693366 0.73253083
-0.43476814 0.024659138 0.73303854
-0.42490885 0.024928324 0.73510075
-0.41512036 0.025078172 0.73676819
-0.40474412 0.024953948 0.73692
-0.39955917 0.022027997 0.73912501
-0.4836823 0.030527746 0.73042858
-0.47480002 0.031078609 0.73084474
-0.46796235 0.031255491 0.73047733
-0.45127821 0.031420473 0.73181659
-0.4451938 0.032648154 0.73203033
-0.43503967 0.033453945 0.73173928
-0.42455894 0.033079751 0.73220187
-0.41510704 0.034438767 0.73417497
-0.40416408 0.034468051 0.73363841
-0.39920756 0.037198067 0.73244649
-0.40146697 0.04598555 0.73818755
-0.39873838 0.042319752 0.73096883
-0.46745679 0.058840055 0.73025006
-0.45444232 0.058704831 0.73318756
-0.43807185 0.058863208 0.73362505
-0.41355813 0.058728524 0.73248541
-0.40275574 0.055426672 0.7355426
-0.28062868 -0.19955875 0.7400834
-0.27580512 -0.19845024 0.74021035
-0.26050434 -0.19242741 0.74000007
-0.25540313 -0.19650444 0.74006563
-0.26073012 -0.18835618 0.74003124
-0.25888163 -0.18868218 0.74000001
-0.25069657 -0.17131564 0.74000001
-0.25076815 -0.16852461 0.74000007
-0.26209518 -0.15261075 0.74028403
-0.2589108 -0.15196234 0.7400834
-0.26218265 -0.14828438 0.74031246
-0.25882372 -0.14850785 0.74010712
-0.25708592 -0.13687482 0.74000001
-0.24067402 -0.090661526 0.74000001
-0.33099595 -0.080277234 0.74591678
-0.32496613 -0.080459446 0.74667501
-0.31634149 -0.081149101 0.742625
-0.2933321 -0.081357442 0.7409445
-0.28558406 -0.080814756 0.74160004
-0.24150921 -0.088991672 0.74000001
-0.33290273 -0.076484941 0.74429893
-0.31588945 -0.07945551 0.74485004
-0.30463251 -0.079372466 0.74690634
-0.29668596 -0.079483658 0.74279553
-0.28226611 -0.076307423 0.74528331
-0.27846411 -0.077602141 0.74054545
-0.18597683 -0.075728729 0.74561065
-0.33164972 -0.06421835 0.74490923
-0.28141502 -0.066386513 0.74304169
-0.2788122 -0.061654344 0.74058342
-0.38723192 -0.058525857 0.74333334
-0.36448437 -0.055545546 0.74490249
-0.35507149 -0.054412682 0.74288595
-0.34853977 -0.054627579 0.740475
-0.33158714 -0.056435876 0.74358118
-0.32737443 -0.052884012 0.74566078
-0.30057058 -0.050884016 0.74437499
-0.29565188 -0.0509913 0.74594456
-0.28298885 -0.052336428 0.74587506
-0.27425611 -0.05450666 0.74243426
-0.26411372 -0.05313326 0.74040699
-0.25407037 -0.052458696 0.74076968
-0.24585952 -0.052655485 0.74593878
-0.23461564 -0.053158991 0.74565083
-0.22521153 -0.053447768 0.74293739
-0.21510477 -0.052776802 0.74235868
-0.25128233 -0.049599782 0.74025005
-0.24497044 -0.049401708 0.74180001
-0.23641966 -0.048839819 0.74252284
-0.22372243 -0.049671326 0.74318755
-0.2164762 -0.049409784 0.74201936
-0.41316649 -0.030554393 0.74018753
-0.4011023 -0.030551814 0.74012506
-0.37623253 -0.032572478 0.74050003
-0.35462931 -0.032568809 0.74041671
-0.31420708 -0.031384621 0.74804157
-0.30531713 -0.03160486 0.74779546
-0.29323381 -0.030848866 0.74325007
-0.28630033 -0.031019855 0.74479556
-0.27954382 -0.030577613 0.74075001
-0.40514952 -0.025277216 0.74044538
-0.24150105 -0.029584667 0.741
-0.23848879 -0.029647049 0.74256253
-0.2127846 -0.029186299 0.74508339
-0.2063185 -0.029334422 0.74740636
-0.41095179 -0.017524472 0.74011111
-0.40791133 -0.016201008 0.7402634
-0.40051079 0.0087370072 0.74070001
-0.4008382 0.012404099 0.74069649
-0.16350847 0.1936221 0.74575001
-0.16303244 -0.41445169 0.7523368
-0.18168449 -0.40105677 0.75025004
-0.17865838 -0.40109777 0.75020003
-0.29014519 -0.39753833 0.75000006
-0.28869405 -0.39826366 0.75000006
-0.25661579 -0.39479202 0.75029457
-0.18437059 -0.39620599 0.7505182
-0.29578605 -0.36621007 0.75654608
-0.28458881 -0.36554414 0.75712383
-0.27596971 -0.36676154 0.7557916
-0.26554835 -0.36723387 0.75646347
-0.2550562 -0.36656371 0.75554788
-0.24426135 -0.36749318 0.75513589
-0.23541662 -0.36756316 0.75436783
-0.22454998 -0.36632439 0.75498611
-0.21575125 -0.36728474 0.75419927
-0.20452313 -0.36516392 0.75480837
-0.19514726 -0.36530527 0.75343406
-0.18635851 -0.36484671 0.75563914
-0.17368755 -0.36632922 0.75389814
-0.16500135 -0.36530596 0.75374383
-0.15504964 -0.3650766 0.75461346
-0.14880234 -0.36161655 0.75361544
-0.32648268 -0.35817859 0.75300008
-0.31329978 -0.35817578 0.75230777
-0.30499417 -0.35780412 0.7524327
-0.29516056 -0.35645363 0.75242591
-0.28435555 -0.35715264 0.75204545
-0.26531184 -0.35500538 0.752343
-0.25502995 -0.35643822 0.75434381
-0.24448706 -0.3543539 0.75288326
-0.23545612 -0.35379833 0.75364715
-0.22455637 -0.35394892 0.75269473
-0.21534577 -0.35391322 0.7539295
-0.20486242 -0.35296753 0.75345135
-0.19454564 -0.35311833 0.75359464
-0.18546 -0.3540633 0.75436103
-0.17503668 -0.35262352 0.75375891
-0.16437913 -0.35413581 0.75631261
-0.15478148 -0.35520807 0.75671881
-0.14834145 -0.35575938 0.75661463
-0.12340523 -0.35606322 0.75629401
-0.11608666 -0.35512996 0.75711018
-0.20494062 -0.22229429 0.75887942
-0.20394844 -0.21717349 0.7592693
-0.14684378 0.066534214 0.7539584
-0.22071497 0.19263212 0.75341672
-0.2181409 0.19545646 0.75200003
-0.12737678 0.19565852 0.75458336
-0.036032073 -0.42588782 0.76816672
-0.037777148 -0.39569631 0.76739281
-0.23500554 -0.36430636 0.76179159
-0.22556801 -0.3632431 0.76080734
-0.21445692 -0.36409774 0.76194006
-0.20490713 -0.36356574 0.7617293
-0.19521633 -0.36394408 0.76311648
-0.18394384 -0.36352915 0.76164365
-0.17540948 -0.36374632 0.76371145
-0.16513011 -0.36241847 0.76120353
-0.15689449 -0.3613936 0.76001799
-0.1112303 -0.3609851 0.76125002
-0.1064606 -0.36127776 0.76181829
-0.090897664 -0.36033088 0.7615
-0.087311625 -0.36042553 0.76170003
-0.062726848 -0.36437348 0.76357812
-0.038115636 -0.36559182 0.76822221
-0.25649884 -0.35969996 0.7601667
-0.23534131 -0.35962114 0.76000005
-0.22725599 -0.35985771 0.76050001
-0.21437408 -0.35898748 0.76021433
-0.20506699 -0.35904646 0.76033932
-0.19683635 -0.35887054 0.76121432
-0.18182698 -0.35905144 0.76128578
-0.17501149 -0.35905147 0.76343751
-0.16644864 -0.35842934 0.7611112
-0.11209524 -0.35829157 0.7610001
-0.10487555 -0.35778621 0.76147974
-0.094522245 -0.35790128 0.76106817
-0.085770532 -0.35710815 0.76164377
-0.065745078 -0.35600197 0.7644186
-0.038527567 -0.35470858 0.76553947
-0.065368101 -0.34404242 0.76213455
-0.065151542 -0.33407444 0.76543623
-0.040093392 -0.33041742 0.76625001
-0.039233983 -0.33401108 0.76975006
-0.065207675 -0.32481563 0.76503015
-0.040127877 -0.32446745 0.76690906
-0.065682925 -0.31634226 0.76644498
-0.066635162 -0.30457729 0.76759624
-0.040494274 -0.30468658 0.76602501
-0.065886505 -0.29461977 0.76226974
-0.04109478 -0.29280239 0.76557148
-0.065957211 -0.28549922 0.7624293
-0.041300289 -0.28802299 0.7694
-0.066744827 -0.27443767 0.7624585
-0.066717573 -0.26602557 0.76133615
-0.042048626 -0.26792356 0.76406252
-0.042078204 -0.25464764 0.76460004
-0.042005718 -0.24400096 0.76499999
-0.066504061 -0.23462671 0.76077837
-0.041718584 -0.2352476 0.76532704
-0.21295315 -0.22070703 0.76000005
-0.2065876 -0.22077964 0.76025003
-0.12558022 -0.22034283 0.76230001
-0.095611289 -0.22027676 0.76207149
-0.070762821 -0.22003932 0.76125002
-0.065222457 -0.22476329 0.76458818
-0.055095341 -0.22302239 0.76294196
-0.046168882 -0.22432014 0.76580888
-0.21323396 -0.21970212 0.76008338
-0.20571324 -0.21797033 0.76060706
-0.18078621 -0.21556206 0.76000005
-0.13313431 -0.21688296 0.76094037
-0.12525524 -0.21690333 0.7624436
-0.11320847 -0.21642268 0.76044053
-0.1051795 -0.21588738 0.76095629
-0.094961084 -0.21664335 0.76218837
-0.088483505 -0.21553011 0.76025009
-0.074243777 -0.21459973 0.76143438
-0.067605264 -0.21580958 0.76313347
-0.054685548 -0.21905528 0.76330262
-0.045988359 -0.21755224 0.76336539
-0.071330845 -0.20524478 0.76181257
-0.068445504 -0.20417292 0.76275694
-0.07126686 -0.19516717 0.7659598
-0.068219714 -0.1952861 0.76668543
-0.071227022 -0.18517576 0.76625925
-0.068263605 -0.18564571 0.76699013
-0.071042091 -0.17619345 0.76478577
-0.068359978 -0.17436621 0.76383352
-0.043157473 -0.17149083 0.76537502
-0.07126534 -0.16397163 0.76221675
-0.068272658 -0.16508561 0.76266694
-0.043268841 -0.16465434 0.76735008
-0.071273722 -0.15491438 0.76427788
-0.068558939 -0.15591995 0.7640866
-0.071246937 -0.14527144 0.76645857
-0.068656601 -0.14528094 0.76651257
-0.044183265 -0.14399616 0.7651875
-0.068790071 -0.13454421 0.76316011
-0.044225372 -0.13530916 0.76591665
0.038699292 0.33434561 0.76687497
0.043221466 0.33520967 0.76644218
0.039876185 0.34183741 0.76737499
0.045030341 0.34452736 0.76719683
0.057994176 0.34730527 0.76783347
0.038068462 0.35637003 0.76795006
0.045301534 0.35477889 0.76638669
0.037795823 0.36466518 0.76881403
0.045093819 0.3649559 0.76605558
0.036852341 0.37083253 0.76933336
0.042434011 0.37055856 0.76855004
0.05390121 0.37036785 0.76729172
-0.035428211 -0.43120161 0.77775002
-0.036242034 -0.42313746 0.77264291
-0.036231425 -0.41464865 0.77241671
-0.036332078 -0.40688068 0.77456254
-0.037290987 -0.39387184 0.77269447
-0.037377026 -0.38429224 0.77447736
-0.037580825 -0.37795702 0.77870005
-0.037553936 -0.36504841 0.77814293
-0.065454438 -0.35190657 0.77262515
-0.037840419 -0.35492635 0.77444446
-0.065708593 -0.34569311 0.77398765
-0.038512807 -0.34522274 0.77622724
-0.065377355 -0.33911368 0.77068752
-0.039605331 -0.33295879 0.77703577
-0.039730936 -0.3292709 0.77950001
-0.067080475 -0.31170553 0.77055359
-0.040469181 -0.31570876 0.77343184
-0.066899613 -0.309174 0.7701875
-0.040341932 -0.30532485 0.77100009
0.076531656 -0.30076805 0.77928573
-0.040603552 -0.2983683 0.77600002
0.074667424 -0.2948277 0.77784747
-0.041368287 -0.28275761 0.77066666
0.074258454 -0.28956974 0.7791667
-0.041626509 -0.27559531 0.77547741
-0.041637123 -0.26463389 0.77567506
-0.041768633 -0.25283697 0.77812505
0.072925158 -0.2522516 0.77618182
-0.04155105 -0.24560969 0.77407151
-0.041701082 -0.23229198 0.77200007
-0.043321073 -0.22475035 0.77033335
-0.04367201 -0.21494663 0.77449995
0.071673937 -0.20004916 0.77975005
0.071662419 -0.19790591 0.779625
-0.043756589 -0.17702329 0.77600002
0.048602864 -0.17167453 0.77954167
0.050316639 -0.17241774 0.77960718
0.048605483 -0.16904485 0.77958339
0.050018717 -0.16835904 0.77966672
-0.043688457 -0.15488079 0.77479172
-0.044511676 -0.13045204 0.77087504
0.057349145 -0.13352457 0.7788378
0.060994178 -0.13347037 0.77935416
-0.044704955 -0.12524885 0.77422231
0.058152404 -0.12882109 0.77950007
0.060584977 -0.129315 0.77975005
-0.045504037 -0.11101753 0.77000004
0.045200158 -0.11790284 0.7795279
-0.045752238 -0.10532753 0.77420008
-0.046382412 -0.093681812 0.77308339
0.11886855 -0.095137723 0.77940476
-0.06295491 -0.080835827 0.7759546
-0.054416258 -0.081282884 0.77810013
-0.04764536 -0.086193942 0.77654171
0.048967976 -0.080751255 0.77975005
0.051080156 -0.081015185 0.77975005
0.11970688 -0.08865495 0.77962506
-0.066160336 -0.077134021 0.77170831
-0.046294801 -0.071819231 0.77450001
0.048734054 -0.075402834 0.77939159
0.051922914 -0.075210564 0.77937496
-0.044097681 -0.064055808 0.77587509
0.051316101 -0.066637456 0.77955884
-0.043460194 -0.054725576 0.77447504
0.049153738 -0.05053135 0.77935004
0.05278882 -0.051285267 0.77929425
-0.041458644 -0.045478091 0.77235001
0.048716243 -0.045970302 0.77925009
0.054807939 -0.044488013 0.77827251
0.063283153 -0.041417435 0.7793088
-0.040827285 -0.035105884 0.77742857
0.048880212 -0.032107476 0.77940631
0.054817636 -0.035188433 0.77869159
0.064814076 -0.035057649 0.778503
0.070638686 -0.035335701 0.77933341
0.11817801 -0.035275638 0.77869999
-0.041907892 -0.026239969 0.77581257
0.048064701 -0.027552899 0.77959609
0.051247984 -0.028311888 0.779625
0.12653384 -0.028585052 0.77940005
-0.042416975 -0.01276063 0.77793753
0.047084976 -0.011117807 0.7791751
0.050893277 -0.011422433 0.77958339
-0.042314835 -0.0077666319 0.77655005
0.046952683 -0.0049794717 0.77838981
0.052354574 -0.0042435434 0.77932495
0.065124273 -0.0017660649 0.77930552
0.048542939 0.0047592856 0.77909833
0.055175837 0.0049205264 0.77908009
0.064822257 0.0048429319 0.77838248
0.070586212 0.0058159572 0.77939999
0.11780802 0.0056245318 0.77877933
-0.043520074 0.015167464 0.77180558
0.038982991 0.018671254 0.7786001
0.045643911 0.015297357 0.77691883
0.055102259 0.014732923 0.77689457
0.06508936 0.014732201 0.77678752
0.072475187 0.0167618 0.77813995
-0.043715715 0.025208473 0.77527505
0.03855725 0.025273122 0.77745837
0.045005087 0.025203289 0.77523744
0.054777469 0.025105728 0.77231133
0.064812407 0.025144566 0.7734701
0.074059136 0.0250824 0.77564919
-0.043708041 0.03516794 0.77513891
0.038265679 0.035048775 0.77606714
0.044975836 0.035147615 0.77467763
0.054917406 0.035133447 0.77423453
0.065194197 0.034952462 0.77630371
0.074245736 0.035211261 0.77473217
-0.043812979 0.043148648 0.77700013
0.038531084 0.045110527 0.7757827
0.044892587 0.045031212 0.77327746
0.054946616 0.045068849 0.77578425
0.065510683 0.045389079 0.77719325
0.073716097 0.04499929 0.77390587
0.038693674 0.055093706 0.77491665
0.054902729 0.054925818 0.77346748
0.0647026 0.054790694 0.77384037
0.07419613 0.054922361 0.77418572
-0.043702483 0.068555124 0.77653849
-0.033752587 0.069148146 0.77958339
-0.025259867 0.069012992 0.77925003
-0.016173724 0.069422998 0.77715003
0.0067243301 0.069162928 0.77975005
0.037690938 0.066040114 0.77496415
0.064845376 0.064981468 0.77392763
-0.044989552 0.074983761 0.77531767
-0.034811851 0.074765213 0.77614957
-0.024847841 0.07463073 0.77626401
-0.014714861 0.074862458 0.77496779
-0.0049587814 0.075477682 0.77732152
0.0052049961 0.074939579 0.77688926
0.015175524 0.075692698 0.77768916
0.025312748 0.075241476 0.77703094
0.035014894 0.075023815 0.77487665
-0.034795117 0.085053898 0.77543497
-0.024816599 0.085038342 0.77531093
-0.0048673241 0.085068107 0.77557772
0.015092103 0.085077368 0.77566403
0.081151567 0.10667327 0.77909619
0.081475638 0.11413041 0.77921885
0.08065071 0.13989708 0.77975005
0.081310496 0.14595123 0.77914476
0.096951738 0.1482663 0.779625
0.081034556 0.15307602 0.77920836
0.097690523 0.15498158 0.77937818
0.085382581 0.16915295 0.77956247
0.097161427 0.16413999 0.77956271
0.03896971 0.36959007 0.77000004
0.040012594 0.36959007 0.77000004
0.038976036 0.37121421 0.77012503
0.040364552 0.37136784 0.77008337
-0.035275292 -0.43369994 0.78609377
0.05541091 -0.43314311 0.78125
0.074241348 -0.43483314 0.78855723
0.10085506 -0.43403795 0.78671426
0.12722629 -0.43349469 0.78654039
0.13284433 -0.43281949 0.78568482
-0.035755619 -0.42509341 0.78493756
0.058064044 -0.42694175 0.78847229
0.064567097 -0.42480978 0.78844041
0.074930899 -0.42460066 0.7876637
0.080504805 -0.42230532 0.78866667
0.10572065 -0.42738587 0.78601402
0.11086314 -0.42899412 0.78431255
0.13710615 -0.4259105 0.78572655
-0.035648853 -0.41534626 0.78259373
0.049344771 -0.41063645 0.78575003
0.053975094 -0.41323379 0.78775609
0.07712391 -0.41538629 0.78733885
0.081570372 -0.41717109 0.78865004
0.10906018 -0.41157079 0.78815007
0.11455382 -0.41341791 0.78557491
0.12411856 -0.41734067 0.78605437
-0.036388814 -0.40500405 0.78383929
0.048822522 -0.40752563 0.78590626
0.055216808 -0.40780082 0.78815472
0.074888982 -0.40622029 0.78843391
0.085989796 -0.40687367 0.78136116
0.092354484 -0.40494883 0.78447223
0.10844998 -0.40738791 0.78873086
0.11457266 -0.40638086 0.7863394
0.12090804 -0.4026776 0.78745002
0.1429361 -0.40194952 0.78958338
0.057569485 -0.39101127 0.7890833
0.066976272 -0.39167744 0.78901935
0.074732393 -0.39376536 0.78757733
0.087559231 -0.39479324 0.78672594
0.090945981 -0.39600781 0.78506261
0.10777495 -0.39266276 0.78867656
0.11542841 -0.39454824 0.78598899
0.12334092 -0.3939952 0.78643745
0.13720357 -0.39346081 0.78650004
0.14309916 -0.39576596 0.78865612
0.057315394 -0.38453242 0.78710479
0.063157484 -0.38518584 0.7872501
0.074016795 -0.38906732 0.7878167
0.10774595 -0.38528681 0.78740567
0.11361682 -0.38408706 0.78657639
0.12502405 -0.38482749 0.78404683
0.1418539 -0.38611877 0.78839004
-0.037667692 -0.37302005 0.78049999
0.05596222 -0.37464237 0.78814906
0.061244298 -0.3774572 0.78822505
0.088128097 -0.3718029 0.7844376
0.091521539 -0.37211964 0.78441674
0.11661939 -0.37637243 0.78798395
0.12517597 -0.37527829 0.78464711
0.13312636 -0.37742195 0.78673291
0.053865898 -0.36909553 0.78962505
0.077259846 -0.36124915 0.78825003
0.088091962 -0.368027 0.78532964
0.091586895 -0.36780986 0.78631592
0.11835815 -0.36656648 0.78772318
0.12295847 -0.36735332 0.78533345
0.054658301 -0.35279584 0.78836757
0.060196891 -0.35068771 0.78850001
0.075672321 -0.35383803 0.78617513
0.10359623 -0.35011896 0.78962505
0.049533173 -0.34118786 0.78874999
0.05496965 -0.34516287 0.78687018
0.062944531 -0.34360203 0.78721529
0.074677028 -0.34955931 0.78916669
0.098832428 -0.34347281 0.78851473
0.10376267 -0.343943 0.78635007
0.12525955 -0.34204897 0.78827173
0.13593441 -0.34151167 0.78798079
0.14200713 -0.342953 0.78912503
0.04953317 -0.33798352 0.78874999
0.055122569 -0.33520281 0.78560954
0.064672105 -0.3348015 0.7865265
0.075167403 -0.33487335 0.78836191
0.086504221 -0.33363858 0.78605562
0.096086621 -0.33530751 0.78834379
0.10485038 -0.33514562 0.78551662
0.11739896 -0.33352539 0.78623533
0.12500143 -0.33497509 0.78539443
0.13467038 -0.33477181 0.78704047
0.14228299 -0.33400783 0.78878278
-0.039873652 -0.32674378 0.78230006
0.048738431 -0.32265896 0.78627503
0.054787878 -0.32498264 0.78593987
0.064851195 -0.32595408 0.78620714
0.074598484 -0.32448268 0.78414422
0.086944617 -0.32483411 0.78441185
0.093286425 -0.32420939 0.78739578
0.11884716 -0.32779443 0.78704697
0.12439326 -0.32510975 0.78507113
0.13256396 -0.32837045 0.7889424
0.14341989 -0.32819343 0.78896248
-0.039941184 -0.31191632 0.78362501
0.048566021 -0.31447706 0.78513044
0.054770079 -0.31457311 0.78559566
0.060130093 -0.31990534 0.78762507
0.075857006 -0.31779605 0.78508329
0.080692962 -0.31842414 0.78603566
0.094125301 -0.31542441 0.78899395
0.11571811 -0.31414402 0.78875571
0.13848056 -0.31214538 0.78860712
0.14257474 -0.31148866 0.78881264
-0.039810576 -0.30560765 0.7810626
0.048945103 -0.30750465 0.78853858
0.054548275 -0.30513427 0.78787643
0.060120549 -0.30333075 0.78750002
0.075315088 -0.30313069 0.78270316
0.080496304 -0.30161121 0.78858334
0.095517568 -0.30471677 0.78867382
0.11673781 -0.3043288 0.78953993
0.1206122 -0.30226704 0.78950006
0.13847987 -0.30479518 0.78703046
0.14345045 -0.30499268 0.78714609
-0.040889468 -0.29359648 0.78146428
0.049084332 -0.29257396 0.78934091
0.054959834 -0.29537758 0.78821814
0.064686865 -0.29362512 0.78613842
0.073485844 -0.29432809 0.78353268
0.08056435 -0.29972866 0.78925002
0.094711021 -0.29817024 0.78866255
0.10760084 -0.29305607 0.78612494
0.11433182 -0.29465193 0.78891242
0.12409148 -0.29410064 0.78866529
0.13644986 -0.29428464 0.78732258
0.1435677 -0.29616293 0.78717184
-0.040924042 -0.28484446 0.78212506
0.049181208 -0.28740835 0.78953135
0.055265319 -0.28473291 0.78670979
0.065306149 -0.28508097 0.7856974
0.073567741 -0.28570879 0.78548342
0.092091903 -0.28185743 0.78938472
0.1082544 -0.2898356 0.78850001
0.11762586 -0.28516588 0.78794807
0.12489832 -0.2848433 0.7857272
0.13493785 -0.28465798 0.78511125
0.14282332 -0.28452933 0.78635973
0.048510749 -0.27131882 0.78950006
0.05609234 -0.27557567 0.78872627
0.065495171 -0.2778672 0.78798997
0.074359447 -0.27438709 0.78774124
0.089148276 -0.27418175 0.78953582
0.091473676 -0.27548885 0.78929991
0.1052954 -0.27282351 0.78877425
0.11816035 -0.27730238 0.78800958
0.12414794 -0.27685165 0.78618991
0.13609314 -0.27628005 0.78696007
0.1436923 -0.27502945 0.78808206
-0.041896123 -0.26047626 0.78050005
0.048715439 -0.26527804 0.78788084
0.054660365 -0.26477468 0.78668058
0.060254153 -0.26286244 0.78925002
0.074794538 -0.26543927 0.78528285
0.089172468 -0.26997891 0.78975004
0.091080539 -0.26949999 0.78960001
0.1056794 -0.26908106 0.78920841
0.11693808 -0.26132447 0.78944641
0.13840514 -0.26497898 0.78698397
0.14325093 -0.2650345 0.78562504
-0.041896123 -0.25783485 0.78050005
0.048464175 -0.25500539 0.78736007
0.054618228 -0.25513393 0.78608912
0.064364642 -0.2542952 0.78668422
0.07561595 -0.25245598 0.78529012
0.0816679 -0.25067911 0.78958338
0.11647628 -0.25786695 0.78936857
0.13782573 -0.25502086 0.78635007
0.14307544 -0.25494006 0.78649569
0.048076097 -0.24484448 0.78481054
0.054899029 -0.2450211 0.78452289
0.065453976 -0.24451999 0.78583217
0.074522845 -0.24491328 0.78447562
0.082790464 -0.24469526 0.78795332
0.11827672 -0.24201889 0.78857815
0.12464518 -0.24384561 0.7874822
0.13528273 -0.24450216 0.78676373
0.14130598 -0.24599861 0.78842998
-0.04250931 -0.23187974 0.78206253
0.048199464 -0.23519008 0.78555661
0.054786216 -0.23489596 0.78221971
0.065030478 -0.23463087 0.78240436
0.07484924 -0.23509124 0.78437376
0.081403688 -0.23640487 0.78850001
0.11683638 -0.23528685 0.78670669
0.12515311 -0.234979 0.7855767
0.13472731 -0.23494731 0.7867052
0.14228587 -0.23393698 0.784159
0.04815343 -0.22494002 0.78368753
0.054976001 -0.22500803 0.78259462
0.065593787 -0.22730698 0.78264087
0.074361674 -0.2250877 0.78414947
0.080589876 -0.22927395 0.78950006
0.093433328 -0.22181967 0.78960001
0.11840722 -0.22605325 0.78633595
0.12350408 -0.22588871 0.78655255
0.13755608 -0.22479135 0.78292245
0.14290112 -0.22488044 0.78457731
0.048129983 -0.2168943 0.78245014
0.053896941 -0.21474428 0.78267169
0.073752753 -0.21881725 0.78803337
0.088890865 -0.2154586 0.78936118
0.09337914 -0.21440612 0.78913462
0.10481025 -0.21193558 0.78914136
0.116657 -0.212593 0.78846091
0.12065024 -0.21597865 0.78925002
0.13816226 -0.21570328 0.78777349
0.14241983 -0.21464691 0.78858912
0.048154641 -0.20382409 0.78649008
0.05474741 -0.20527653 0.78451216
0.065777943 -0.20239215 0.78516257
0.073076472 -0.20293202 0.78286296
0.088787757 -0.20165998 0.7895
0.094981462 -0.20435208 0.78898096
0.10487434 -0.20515552 0.78718507
0.11483146 -0.2053504 0.78793544
0.1224344 -0.20282266 0.78877383
0.13765377 -0.20475328 0.78563327
0.14254639 -0.20489971 0.78620154
0.04826168 -0.19638503 0.78621751
0.054776937 -0.19484499 0.78285897
0.065149203 -0.19464611 0.78231835
0.073262326 -0.19442828 0.78271931
0.088794038 -0.19721952 0.78955567
0.095047355 -0.19503786 0.78868282
0.10491598 -0.19511051 0.78751671
0.11457382 -0.19484563 0.78520745
0.12467888 -0.19475611 0.78462315
0.1351155 -0.19456401 0.78309572
0.047702108 -0.18463902 0.78605157
0.055144802 -0.18506618 0.78360546
0.064989105 -0.18507737 0.78292865
0.073537327 -0.18489443 0.78523695
0.087255284 -0.18265598 0.78832138
0.095213592 -0.18520871 0.78878343
0.10504457 -0.18506685 0.7881617
0.11493227 -0.18507375 0.78592485
0.12458994 -0.18492873 0.78116757
0.14247403 -0.18519229 0.78449482
0.046807457 -0.17522296 0.78241664
0.054840069 -0.17540047 0.78288996
0.065813735 -0.17683479 0.78466511
0.074612677 -0.17484696 0.78374428
0.085158303 -0.17474753 0.78743541
0.094350256 -0.17514582 0.78844988
0.10469979 -0.17495449 0.78846991
0.11736896 -0.17550395 0.78519684
0.12414424 -0.17649955 0.78457111
0.1360368 -0.17576328 0.78458357
0.14244694 -0.17497189 0.78565276
0.047392815 -0.16525526 0.78315139
0.053853609 -0.16461319 0.78104377
0.069277175 -0.16473259 0.78250003
0.073458947 -0.16516341 0.78292757
0.085188888 -0.16863248 0.78918058
0.096780166 -0.16457038 0.78829831
0.10357744 -0.16498721 0.78796929
0.11722086 -0.16475722 0.78714138
0.12097363 -0.16853112 0.78787506
0.13721965 -0.16487753 0.78463775
0.14269611 -0.16515218 0.78702509
0.047933292 -0.15401649 0.78345978
0.053950258 -0.15499119 0.78253013
0.067691892 -0.15404317 0.78357255
0.074557565 -0.15479486 0.78380203
0.081918672 -0.15330201 0.78885877
0.097111396 -0.15720321 0.78846407
0.10396812 -0.15499772 0.78902382
0.11480363 -0.15486568 0.78604811
0.12273917 -0.15207323 0.7847895
0.13748179 -0.15576062 0.78397727
0.14209898 -0.15498079 0.78345168
0.047617465 -0.1449485 0.78668129
0.054901823 -0.14502244 0.78348434
0.065225109 -0.14470215 0.78198701
0.074541792 -0.14533049 0.78458434
0.083670147 -0.14452638 0.78925008
0.095871963 -0.14326571 0.78877223
0.10352973 -0.14429118 0.78880286
0.1173083 -0.14521557 0.78303337
0.12451699 -0.14416519 0.78222066
0.13505942 -0.14536749 0.7818442
0.047364324 -0.13461319 0.7854777
0.053042989 -0.13554873 0.78221768
0.065638386 -0.13512604 0.7805416
0.074602805 -0.1351603 0.78488755
0.085597321 -0.13609068 0.78905505
0.094862029 -0.13497639 0.78815556
0.10458617 -0.13465922 0.78745651
0.11637531 -0.13443454 0.78580159
0.12369008 -0.13509087 0.78121722
0.047122072 -0.12502372 0.78332305
0.054111287 -0.12510076 0.78299677
0.065972708 -0.12685584 0.78341037
0.074755676 -0.12489028 0.78584594
0.085670993 -0.12319754 0.78933173
0.094738901 -0.12520041 0.78813976
0.10487631 -0.1252192 0.78718823
0.11473197 -0.12493161 0.78500259
0.12392984 -0.12728742 0.78310329
0.13611217 -0.12394428 0.78332812
0.1417041 -0.12528871 0.78354043
0.047276024 -0.11454471 0.78145629
0.053444751 -0.11507425 0.78342068
0.069526963 -0.11626362 0.78532153
0.073195517 -0.11566356 0.78668869
0.084550984 -0.11507764 0.78935546
0.095512308 -0.11550426 0.78798532
0.10490894 -0.11512882 0.78743601
0.11437815 -0.11520991 0.78631389
0.047104537 -0.10506192 0.78318882
0.053622331 -0.10488007 0.78294021
0.067526609 -0.10380208 0.78185833
0.07465823 -0.10468981 0.78560066
0.084758788 -0.10514139 0.78847849
0.095936187 -0.10468172 0.78903884
0.10501452 -0.10510751 0.78821909
0.11471501 -0.10494936 0.78690493
0.12209693 -0.10252368 0.78327274
0.13571526 -0.10506052 0.78162873
0.048168272 -0.094982609 0.78393525
0.054800566 -0.094758928 0.78149188
0.065161631 -0.094974101 0.78219068
0.074970275 -0.095015295 0.78575313
0.084774815 -0.095019139 0.78863633
0.094804108 -0.094905064 0.78767753
0.1049872 -0.094942942 0.78800845
0.11409019 -0.095016904 0.78464514
0.1265948 -0.095244631 0.78171885
0.13476099 -0.094826527 0.78162014
0.14173675 -0.094532423 0.78403568
0.046938688 -0.084891118 0.78242862
0.055120692 -0.085154578 0.78086072
0.064901985 -0.084873483 0.78218675
0.074832328 -0.084951699 0.78547639
0.085145436 -0.084823623 0.78815627
0.095171802 -0.084736429 0.78735542
0.10492365 -0.084757283 0.78754032
0.11500676 -0.084923968 0.78450996
0.12565531 -0.084413514 0.78083962
0.13482445 -0.085172378 0.78156519
0.14191812 -0.08491388 0.78566688
0.045849871 -0.07453271 0.78060848
0.055993117 -0.076074496 0.78158134
0.066288978 -0.076237015 0.78317124
0.074726097 -0.075041428 0.78493369
0.084685445 -0.07518474 0.78778982
0.094836079 -0.075197533 0.78793877
0.10492349 -0.075161107 0.78755546
0.11474941 -0.075071782 0.78425288
0.1243429 -0.077681936 0.78278202
0.13541292 -0.075954914 0.78188026
0.14127144 -0.076664157 0.78175008
0.047026511 -0.06515342 0.7826333
0.053664528 -0.063930899 0.7809636
0.068686217 -0.065083653 0.78180569
0.075026415 -0.065063052 0.78598303
0.084731989 -0.065087512 0.78823608
0.094878219 -0.065091372 0.78826791
0.1049715 -0.065144151 0.78827506
0.1147069 -0.065665208 0.78692895
0.13420756 -0.064495519 0.78106254
0.046854667 -0.055302002 0.78162235
0.053465754 -0.056260686 0.780945
0.066712506 -0.05429402 0.78190297
0.074670352 -0.054887764 0.78460419
0.084672198 -0.05491126 0.7876786
0.094823353 -0.054920107 0.78781372
0.10486685 -0.054850269 0.78878593
0.11545462 -0.054108158 0.78656173
0.12207458 -0.052775908 0.78592116
0.13369247 -0.056345608 0.7821945
0.046002753 -0.044182297 0.78073293
0.059567057 -0.04646986 0.78025007
0.065392964 -0.045792386 0.78111541
0.07493104 -0.044895228 0.78482974
0.084593281 -0.045140479 0.78801471
0.094765171 -0.045145936 0.78777951
0.10484158 -0.045270678 0.78692591
0.11355457 -0.045499913 0.78392267
0.12536505 -0.047060777 0.78127688
0.14066671 -0.045380551 0.78118753
0.046001516 -0.035551459 0.78213775
0.057442404 -0.030089537 0.78009999
0.066111051 -0.030091468 0.78015
0.075491436 -0.034806628 0.78703392
0.085239969 -0.034969624 0.78741145
0.095302366 -0.035054788 0.78726965
0.10514431 -0.035005488 0.78633249
0.11342172 -0.034871072 0.78279054
0.045904227 -0.024058346 0.78024429
0.05376707 -0.025460573 0.78131503
0.06610065 -0.026549026 0.78225005
0.072714813 -0.025194168 0.78415918
0.085178517 -0.025043527 0.78746659
0.095169418 -0.025005762 0.78626567
0.1053132 -0.025012858 0.78649706
0.11477772 -0.025160978 0.78203434
0.1228667 -0.02732975 0.78116179
0.13487701 -0.023743954 0.78104746
0.046178389 -0.016320093 0.78063112
0.052255966 -0.015208882 0.78110141
0.069454245 -0.019637603 0.78450006
0.074974649 -0.014801846 0.7870177
0.084994122 -0.014882433 0.78574502
0.095126383 -0.014884374 0.78590858
0.10506543 -0.015036768 0.78691477
0.11344393 -0.014837194 0.78490216
0.13290268 -0.01637616 0.78330684
0.043949094 -0.0011501394 0.78065002
0.054268308 -0.0062490334 0.78003579
0.066708349 -0.0048015425 0.78119743
