# .PCD v0.7 - Point Cloud Data file format
VERSION 0.7
FIELDS x y z
SIZE 4 4 4
TYPE F F F
COUNT 1 1 1
WIDTH 1382
HEIGHT 1
VIEWPOINT 0 0 0 1 0 0 0
POINTS 1382
DATA ascii
-0.04923559 -0.11505128 0.89465624
-0.050466686 -0.099351354 0.89500004
-0.050325718 -0.085177355 0.89250004
-0.043326292 -0.057721931 0.89775002
-0.042988468 -0.039181545 0.89075005
-0.031366814 -0.48012444 0.90350002
-0.031451438 -0.47590202 0.90593749
-0.032665234 -0.46405199 0.90557146
-0.033931166 -0.45416582 0.90662503
-0.035140399 -0.44594398 0.90614289
-0.036289699 -0.43152279 0.90419996
-0.035766412 -0.42463169 0.90646875
-0.035155866 -0.4148424 0.90654165
-0.036303975 -0.39494717 0.90455562
-0.036261607 -0.38715592 0.90350002
-0.037476081 -0.36504635 0.90327781
-0.03760355 -0.3576934 0.90635002
-0.038724303 -0.34691593 0.90385717
-0.040043194 -0.33241192 0.90600008
-0.039884817 -0.33720389 0.90241671
-0.04015211 -0.32655054 0.90846431
-0.039954796 -0.32005134 0.90400004
-0.040183153 -0.31326428 0.90916675
-0.039833255 -0.31663728 0.90125006
-0.040164739 -0.30942911 0.90875006
-0.041150704 -0.2959789 0.90337503
-0.041372772 -0.28159046 0.90825003
-0.041304443 -0.27601087 0.90675002
-0.041327219 -0.26961079 0.90725005
-0.042468049 -0.23289177 0.90537506
-0.044215344 -0.22188798 0.90600002
-0.046752892 -0.2155609 0.90528131
-0.035163946 -0.21176107 0.90675002
-0.047183316 -0.20937248 0.90175003
-0.035105776 -0.20650952 0.90525007
-0.046280552 -0.18285786 0.90799999
-0.045974735 -0.17767796 0.90200007
-0.044779424 -0.16191399 0.90265006
-0.038794689 -0.16978545 0.90550005
-0.044646673 -0.15854211 0.90606254
-0.046453748 -0.1451353 0.90345836
-0.04583668 -0.13514011 0.90419996
-0.04875803 -0.12850145 0.90833336
-0.050052483 -0.11142793 0.90950006
-0.051051706 -0.098051161 0.905375
-0.045898281 -0.081063963 0.90050006
-0.043712381 -0.038001858 0.90575004
-0.046153128 0.04844103 0.90550005
-0.030541087 -0.50505823 0.91542864
-0.030575162 -0.49817061 0.91645002
-0.031762343 -0.47395968 0.91489285
-0.032969262 -0.46156943 0.91400003
-0.034251623 -0.4547351 0.9151876
-0.035383053 -0.44161424 0.91240007
-0.035556592 -0.43943763 0.916875
-0.035574373 -0.41791967 0.91733336
-0.035590529 -0.40941465 0.91775006
-0.036592718 -0.39069006 0.91175002
-0.036735196 -0.38476804 0.91530007
-0.036863629 -0.37990299 0.91850007
-0.037974529 -0.35440412 0.91529179
-0.039287388 -0.34513631 0.91700006
-0.040231034 -0.32103166 0.91025007
-0.040369153 -0.3146956 0.91337502
-0.040588301 -0.30896124 0.91833335
-0.04174858 -0.29469511 0.91650003
-0.041549288 -0.28649917 0.91212505
-0.041657474 -0.27299944 0.91450006
-0.041668862 -0.2693626 0.91475004
-0.04157206 -0.25359675 0.91262501
-0.041685943 -0.24717042 0.91512501
-0.043039721 -0.23229858 0.91756254
-0.044201024 -0.2219511 0.91587508
-0.04617428 -0.21629351 0.91717309
-0.046866704 -0.20975891 0.91950005
-0.046828479 -0.19279474 0.91875005
-0.046586368 -0.18715796 0.91400003
-0.040639862 -0.16556332 0.91950005
-0.045874234 -0.15503864 0.91616672
-0.045928467 -0.14373803 0.91631258
-0.048992876 -0.1235576 0.91270834
-0.050079998 -0.1102571 0.91000003
-0.049209826 -0.11790057 0.91675001
-0.050350577 -0.10651129 0.91491675
-0.051498104 -0.093962193 0.91329169
-0.051509857 -0.089038454 0.91350007
-0.047167107 -0.085302427 0.91325009
-0.030770751 -0.49573901 0.9223125
-0.032028608 -0.47089127 0.92256248
-0.032932714 -0.46595216 0.92690009
-0.034641586 -0.4530172 0.9256072
-0.035290703 -0.44519669 0.92625004
-0.035417303 -0.43474466 0.92405564
-0.034735821 -0.42849272 0.92812502
-0.035735957 -0.4135825 0.92150009
-0.035861988 -0.40752506 0.92475003
-0.037305109 -0.38193542 0.92950004
-0.037290059 -0.37423462 0.92912507
-0.037196167 -0.36379001 0.92678583
-0.038150497 -0.3532652 0.92560005
-0.039469473 -0.34174863 0.92124999
-0.039665323 -0.33600777 0.9258216
-0.040879793 -0.30491161 0.92492861
-0.042044666 -0.27054223 0.92300004
-0.042063173 -0.26503482 0.92340624
-0.042283818 -0.2456874 0.92825007
-0.043581456 -0.22523578 0.92377502
-0.045579918 -0.21633652 0.92500001
-0.035823207 -0.21823265 0.92375004
-0.046960149 -0.20768161 0.92133337
-0.047338173 -0.19740865 0.92875004
-0.046117492 -0.18309496 0.92950004
-0.045863215 -0.17520472 0.92437506
-0.039683688 -0.17618434 0.92625004
-0.045972191 -0.16620472 0.92657143
-0.045111626 -0.15432885 0.92450011
-0.047198009 -0.14792529 0.92600006
-0.047783315 -0.13588662 0.92515624
-0.049632549 -0.11515855 0.92462504
-0.05077479 -0.10241733 0.92262506
-0.044665534 -0.10085747 0.92550004
-0.04598105 -0.092212722 0.92675006
-0.046831917 -0.085767783 0.92493755
-0.043283049 -0.0530826 0.92275006
-0.043419857 -0.046980519 0.92566675
-0.030023703 -0.51750785 0.93800002
-0.029939683 -0.51226044 0.93537503
-0.031207593 -0.49517715 0.93540633
-0.031238126 -0.48597404 0.93632144
-0.032129277 -0.47458437 0.93766671
-0.033726763 -0.46204516 0.93500012
-0.033871047 -0.4589417 0.93900001
-0.035022359 -0.44674933 0.93578124
-0.034955695 -0.43816167 0.93400002
-0.036305539 -0.41256237 0.93618751
-0.03621101 -0.40390274 0.93375009
-0.03733521 -0.37846541 0.93025005
-0.037778541 -0.35511631 0.93343753
-0.038848218 -0.34798154 0.93635005
-0.040189773 -0.3330608 0.93806255
-0.039962173 -0.33654439 0.93275005
-0.040109444 -0.32511461 0.93618757
-0.040069278 -0.31845236 0.93525004
-0.041254949 -0.30139747 0.93341666
-0.041322168 -0.29493031 0.9349376
-0.041343346 -0.28621045 0.9354167
-0.042519167 -0.24199796 0.93341666
-0.043848857 -0.2214735 0.93481255
-0.045588795 -0.21714675 0.93415004
-0.047560256 -0.20401867 0.93310726
-0.037596084 -0.20608422 0.93675005
-0.046299413 -0.1846631 0.93316668
-0.046272539 -0.16161257 0.93262506
-0.043763839 -0.15094055 0.93300003
-0.04689689 -0.14426798 0.93669993
-0.047446195 -0.13597277 0.9359501
-0.048947621 -0.12536806 0.93546879
-0.050234187 -0.11338496 0.93583339
-0.051290721 -0.10093488 0.93200004
-0.046002161 -0.10317264 0.93740004
-0.051586524 -0.095182501 0.93737507
-0.045776188 -0.098105222 0.93108338
-0.050701018 -0.087757155 0.93275005
-0.049080066 -0.086979739 0.93800002
-0.043791205 -0.053708967 0.93358344
-0.043675892 -0.047261462 0.93112504
-0.045750994 0.052544184 0.93487501
-0.030122397 -0.52175766 0.94108337
-0.030202417 -0.51675087 0.94358331
-0.031536009 -0.48310655 0.94525009
-0.032329764 -0.47369945 0.94350004
-0.032914612 -0.46723017 0.9480834
-0.033946794 -0.45550719 0.94110012
-0.03456787 -0.44370526 0.94420004
-0.034570485 -0.43556166 0.94424999
-0.035389837 -0.42823562 0.94560003
-0.036584962 -0.40351471 0.94339287
-0.036773324 -0.39926839 0.94825006
-0.036802411 -0.37452972 0.94900006
-0.036812104 -0.36691701 0.94925004
-0.037920501 -0.35305044 0.94483346
-0.039065342 -0.34483013 0.9415834
-0.040399171 -0.32489914 0.94295007
-0.041783482 -0.28414023 0.94537508
-0.041905023 -0.26250309 0.948125
-0.041910551 -0.25740033 0.94825006
-0.042870298 -0.24081293 0.94112504
-0.043042544 -0.23538195 0.94490623
-0.04338954 -0.22670227 0.94783336
-0.045853943 -0.21682386 0.94485009
-0.04691134 -0.19264935 0.94550008
-0.046269521 -0.18559593 0.94550002
-0.039341938 -0.18422064 0.94825006
-0.044154383 -0.17546913 0.94674999
-0.04688653 -0.16119848 0.94500005
-0.046058226 -0.15549709 0.94376659
-0.045365319 -0.14952761 0.94000006
-0.046554562 -0.13429773 0.94400012
-0.047651418 -0.12700798 0.94756252
-0.0504914 -0.11078338 0.94062507
-0.049507383 -0.11848035 0.94616669
-0.050734293 -0.10683422 0.94515002
-0.04605915 -0.10766297 0.9411667
-0.051953409 -0.095845371 0.94404173
-0.04820466 -0.091539852 0.94575006
-0.050739665 -0.088931829 0.94525003
-0.049197797 -0.088461414 0.94025004
-0.044162549 -0.042051256 0.94150007
-0.048191916 0.048020586 0.94550002
-0.030535836 -0.51373655 0.954
-0.030639863 -0.50868678 0.95725
-0.031761203 -0.48011863 0.95200002
-0.031923253 -0.47738054 0.9568572
-0.033011533 -0.46216998 0.95087504
-0.034119688 -0.4552083 0.95383334
-0.034367029 -0.44824773 0.95275003
-0.03431743 -0.43793964 0.95137501
-0.035715908 -0.42636734 0.95431256
-0.037209604 -0.40075842 0.95950007
-0.037021518 -0.39484343 0.95465004
-0.03714174 -0.38479277 0.95775008
-0.037062235 -0.37562054 0.95570004
-0.036905821 -0.36333942 0.95166665
-0.037264083 -0.35678276 0.95537513
-0.039337479 -0.34613943 0.95435011
-0.040786903 -0.32028887 0.95200002
-0.040936857 -0.31499302 0.95550001
-0.040990412 -0.2946808 0.95675009
-0.042208884 -0.28250349 0.9550001
-0.042324908 -0.27550584 0.95762503
-0.042275183 -0.26455921 0.95650005
-0.042374626 -0.25765541 0.95875007
-0.04412521 -0.22443509 0.95916671
-0.046753507 -0.21503593 0.95725
-0.047566973 -0.20572689 0.95871437
-0.047221433 -0.19778864 0.95175004
-0.046161622 -0.18409646 0.95650005
-0.045712736 -0.17349903 0.95485717
-0.045525957 -0.1657919 0.95675009
-0.047380909 -0.12604493 0.95498335
-0.050066382 -0.11334316 0.95685005
-0.047875248 -0.11524362 0.95768058
-0.050418019 -0.10497902 0.95805562
-0.0488078 -0.10629668 0.95758343
-0.02961925 -0.53309143 0.96625006
-0.03100262 -0.51470852 0.96858341
-0.030997954 -0.50545561 0.96843755
-0.031039964 -0.4982613 0.96975005
-0.032109842 -0.47235513 0.96245003
-0.032714829 -0.46601209 0.96494997
-0.033567008 -0.45293146 0.96687508
-0.034024708 -0.44486278 0.96500003
-0.03479087 -0.43809858 0.96450001
-0.036131937 -0.4241406 0.96542853
-0.037340485 -0.39564735 0.96287507
-0.037258074 -0.38697273 0.96075004
-0.036193084 -0.36463311 0.96706253
-0.037818369 -0.35351691 0.96175003
-0.040106025 -0.34092751 0.9666667
-0.039895121 -0.34304047 0.96158338
-0.040233951 -0.33939046 0.96975005
-0.041365292 -0.31175849 0.96550006
-0.041370649 -0.30526441 0.96562505
-0.041292995 -0.29457086 0.96381253
-0.042642578 -0.27626321 0.96481252
-0.042440921 -0.25155789 0.96025002
-0.042609427 -0.24602662 0.96406257
-0.042744782 -0.236332 0.96712506
-0.044190396 -0.2225956 0.96435004
-0.046099633 -0.21838462 0.96881253
-0.046602007 -0.19217247 0.96562505
-0.043937273 -0.18774328 0.96468759
-0.045452476 -0.17513216 0.96900004
-0.047647186 -0.12155639 0.96033341
-0.046330538 -0.11891474 0.96000004
-0.050894558 -0.10074403 0.96025002
-0.050942395 -0.096026987 0.96209615
-0.044022392 -0.051668625 0.96641666
-0.043798424 -0.047500543 0.96150005
-0.045124132 -0.039710652 0.96200007
-0.04602541 0.054363631 0.96725005
-0.029807003 -0.53186476 0.97237504
-0.031228013 -0.50127971 0.97562504
-0.031153329 -0.49414909 0.9732917
-0.031214867 -0.48654151 0.97521436
-0.033339266 -0.46456 0.97295833
-0.033770967 -0.45897436 0.97275007
-0.033840403 -0.44870013 0.97475004
-0.035191517 -0.43672553 0.97560722
-0.036303025 -0.42090383 0.97000003
-0.036387231 -0.41529217 0.97224998
-0.036511205 -0.37411681 0.97556251
-0.036469571 -0.36293566 0.97444999
-0.038177345 -0.35360372 0.97313893
-0.039208155 -0.34851071 0.97691673
-0.040365826 -0.3352302 0.97292858
-0.041841924 -0.29353285 0.97662508
-0.042929858 -0.254453 0.97131258
-0.042976819 -0.2442022 0.97237504
-0.043011073 -0.23305829 0.97315007
-0.044259641 -0.22099096 0.97162503
-0.046056878 -0.21490434 0.97385728
-0.047152486 -0.20502393 0.97703135
-0.047030326 -0.19723773 0.9745
-0.044581354 -0.18284713 0.97868752
-0.045839455 -0.17926949 0.97725004
-0.044316582 -0.045096952 0.97287506
-0.030157879 -0.53212523 0.98382151
-0.030293632 -0.5291751 0.98825002
-0.031505417 -0.48240355 0.98429179
-0.032778766 -0.47089106 0.98250008
-0.032895535 -0.46255803 0.98600006
-0.033289243 -0.45566204 0.98635715
-0.035602473 -0.43429208 0.98699999
-0.036990725 -0.41482562 0.98837507
-0.037007879 -0.39560708 0.98883343
-0.036908858 -0.38553587 0.98618752
-0.03777035 -0.35571715 0.98684371
-0.039206956 -0.34675035 0.98642868
-0.040700704 -0.33137378 0.98100007
-0.040874436 -0.32611185 0.98518753
-0.042297136 -0.29271594 0.98725003
-0.042366754 -0.28717238 0.98887503
-0.042377464 -0.27385384 0.98912501
-0.043346975 -0.23169868 0.98075002
-0.043493778 -0.22581542 0.98407155
-0.044938862 -0.21391876 0.98655564
-0.040928889 -0.20100124 0.98650002
-0.041004092 -0.1980243 0.98831254
-0.039693113 -0.19615445 0.98900002
-0.045186412 -0.18772374 0.98225003
-0.046308521 -0.1316469 0.98725003
-0.046144351 -0.11653329 0.98375005
-0.030587398 -0.53160405 0.99783343
-0.030631782 -0.52493501 0.99928129
-0.03062316 -0.50382262 0.99900007
-0.030619331 -0.49834877 0.99887502
-0.031852171 -0.48097962 0.99512506
-0.03308459 -0.47192779 0.99166673
-0.033058174 -0.46819717 0.99087507
-0.034471095 -0.45101228 0.99291676
-0.034599833 -0.4479726 0.99662501
-0.035743754 -0.43132088 0.99091673
-0.035862707 -0.42602307 0.99421442
-0.037188146 -0.41232985 0.99365008
-0.037227981 -0.40449801 0.99471432
-0.037316639 -0.39485571 0.99708337
-0.037322879 -0.38952127 0.99725002
-0.036007151 -0.37435707 0.99821877
-0.037070252 -0.36006325 0.99050003
-0.037408981 -0.35494858 0.99442863
-0.040044293 -0.34648806 0.99775004
-0.039168686 -0.34762308 0.99841672
-0.041162267 -0.33244365 0.99212503
-0.041361932 -0.32561755 0.99693757
-0.041447502 -0.31536055 0.99900007
-0.031920191 -0.3193101 0.99725002
-0.041413791 -0.30508435 0.99818754
-0.042532776 -0.29098678 0.99275005
-0.042594362 -0.28535664 0.99418753
-0.042425666 -0.27416515 0.99025005
-0.042661306 -0.25276878 0.99575007
-0.042707715 -0.24494191 0.99683338
-0.038450565 -0.24363534 0.99150002
-0.042764843 -0.23851621 0.99816674
-0.043800004 -0.22204444 0.99100006
-0.045701057 -0.21182503 0.99341673
-0.046811305 -0.20536111 0.99796873
-0.046178095 -0.19457841 0.99264294
-0.046789315 -0.13031262 0.99750006
-0.046761956 -0.12483803 0.99691671
-0.046636868 -0.10296497 0.99425006
-0.045261789 -0.041689016 0.99362504
-0.046578236 -0.038301386 0.99300003
-0.046399303 0.056000158 0.99637508
-0.030785799 -0.51585722 1.0043054
-0.030814748 -0.50594658 1.00525
-0.030799421 -0.49515757 1.00475
-0.032242939 -0.48165417 1.0073334
-0.032250274 -0.4747203 1.0075626
-0.032635223 -0.46551374 1.005375
-0.033646192 -0.45809153 1.0085001
-0.034896012 -0.44363391 1.0051563
-0.036274306 -0.42478901 1.005625
-0.03613152 -0.38311049 1.0016667
-0.036271088 -0.36688218 1.0055357
-0.03743048 -0.35205209 1.0001251
-0.040280089 -0.34513125 1.0036252
-0.032304291 -0.32451886 1.00925
-0.041769043 -0.30258709 1.0067501
-0.042848743 -0.28366956 1.0001251
-0.042875521 -0.27571526 1.0007501
-0.043036181 -0.26450896 1.0045
-0.043107588 -0.25405386 1.0061666
-0.042939786 -0.24763387 1.0022501
-0.042324048 -0.23420323 1.0081592
-0.043654099 -0.22342262 1.0070313
-0.044452026 -0.21580158 1.0085682
-0.047012124 -0.10107948 1.0022501
-0.029777976 -0.5634771 1.0163333
-0.031052316 -0.49373794 1.013
-0.032328293 -0.48201996 1.01
-0.0323443 -0.47952232 1.0105001
-0.033879727 -0.46127009 1.0155001
-0.033858046 -0.4546493 1.01485
-0.035187423 -0.43842515 1.0135502
-0.036720689 -0.42519027 1.018
-0.036549348 -0.39096922 1.01325
-0.036474202 -0.36209917 1.0111667
-0.037280224 -0.35548618 1.0118215
-0.040606178 -0.34518552 1.0117501
-0.039168 -0.34937459 1.01
-0.041955743 -0.32242358 1.01125
-0.041955743 -0.31831607 1.01125
-0.042137258 -0.30250531 1.015625
-0.042308398 -0.29752013 1.01975
-0.043435164 -0.26559407 1.0138125
-0.036436625 -0.2584694 1.010125
-0.042298026 -0.2436139 1.0195
-0.043480687 -0.22670516 1.0148751
-0.044771593 -0.2125604 1.0129584
-0.045677096 -0.20877086 1.0178751
-0.044816554 -0.050094537 1.0140001
-0.045249224 -0.04400102 1.016
-0.029929357 -0.56080818 1.0215001
-0.030080736 -0.55669397 1.0266666
-0.031496793 -0.49662852 1.0275
-0.031515952 -0.48231882 1.028125
-0.032652382 -0.47096857 1.0201252
-0.032648381 -0.46883926 1.0200001
-0.034106594 -0.4527289 1.0223
-0.034221698 -0.44787195 1.02575
-0.035446063 -0.43681315 1.021
-0.036828902 -0.42160672 1.021
-0.036929101 -0.41512665 1.0237778
-0.037097178 -0.4079673 1.0284375
-0.036928102 -0.39779311 1.0237501
-0.038212962 -0.35388604 1.0210418
-0.041151341 -0.3428745 1.0253333
-0.04130853 -0.33861405 1.02925
-0.042686988 -0.30296764 1.0288751
-0.042584997 -0.29390189 1.0264168
-0.042474356 -0.25155994 1.0237501
-0.042381007 -0.24755087 1.0215001
-0.045738041 -0.20417915 1.0209444
-0.046827644 -0.1398645 1.028
-0.045170136 -0.053257208 1.0220001
-0.047211926 -0.038007978 1.02125
-0.050719317 0.050534546 1.0222501
-0.048084877 0.05485332 1.02525
-0.030412799 -0.55722004 1.0380001
-0.030388379 -0.54272914 1.0371667
-0.030405471 -0.53741509 1.03775
-0.031818662 -0.50100452 1.0380001
-0.031735893 -0.49409437 1.0353
-0.03178034 -0.48607445 1.0367501
-0.033187713 -0.47237062 1.0368501
-0.03328054 -0.46947071 1.0397501
-0.034484427 -0.44781211 1.0336251
-0.035974532 -0.43559945 1.0362223
-0.037186611 -0.40406692 1.0309167
-0.036036253 -0.39279026 1.0380001
-0.036042038 -0.38582277 1.0381666
-0.040121347 -0.35227251 1.0345834
-0.037968483 -0.35600248 1.0332084
-0.041338634 -0.33676913 1.0300001
-0.041499171 -0.32127732 1.034
-0.041484125 -0.31696254 1.0336251
-0.042855535 -0.2957699 1.0329375
-0.042889245 -0.28676632 1.0337501
-0.041938514 -0.26128098 1.0361875
-0.04153429 -0.25779662 1.0348752
-0.049853586 0.052464586 1.033
-0.030588591 -0.5547871 1.044
-0.030510461 -0.5251711 1.0413333
-0.030605074 -0.51689351 1.0445626
-0.033400569 -0.46480146 1.0434999
-0.033528604 -0.45878658 1.0475001
-0.034813885 -0.449265 1.0435001
-0.036123045 -0.43036368 1.0405
-0.036319774 -0.42703351 1.0461668
-0.036183801 -0.40004238 1.04225
-0.036183801 -0.39863122 1.04225
-0.036140401 -0.38123974 1.041
-0.036203329 -0.37484327 1.0428126
-0.036313988 -0.36607146 1.0460001
-0.040408969 -0.35127315 1.0420001
-0.03821405 -0.35316524 1.0430833
-0.040548578 -0.34753039 1.0455999
-0.037744109 -0.34704471 1.04625
-0.041760046 -0.33738467 1.0405
-0.042034298 -0.32400393 1.0473334
-0.042025939 -0.31684875 1.0471251
-0.043362223 -0.284262 1.04515
-0.043483924 -0.27457178 1.0480834
-0.0432177 -0.26724645 1.0416667
-0.047533706 -0.14056054 1.0435001
-0.047807019 -0.12431724 1.0495001
-0.04613144 -0.041672058 1.04375
-0.047567867 -0.038864318 1.04425
-0.030903563 -0.54193521 1.05475
-0.030859614 -0.5368858 1.0532501
-0.030801015 -0.51309305 1.0512501
-0.032201834 -0.48570305 1.0505
-0.034208842 -0.45467964 1.0538751
-0.036613423 -0.42514035 1.054625
-0.036624271 -0.41490406 1.0549375
-0.036578707 -0.40654862 1.0536251
-0.036565688 -0.36148137 1.0532501
-0.036773987 -0.35924014 1.05925
-0.040748291 -0.34426469 1.05075
-0.039297089 -0.34615162 1.0500001
-0.042234972 -0.33481017 1.0523334
-0.042141326 -0.329092 1.0500001
-0.04251257 -0.31406313 1.0592501
-0.042525113 -0.30483228 1.0595626
-0.04210401 -0.27422482 1.0592859
-0.042321932 -0.26697099 1.0545001
-0.048205599 -0.13108492 1.0582501
-0.047852568 -0.12728031 1.0505
-0.052319415 0.050701089 1.0545001
-0.0312576 -0.50360143 1.0668334
-0.031684805 -0.49624586 1.0650001
-0.032738276 -0.48945624 1.0680001
-0.035389386 -0.45094693 1.06075
-0.035416793 -0.4448275 1.0615715
-0.035472795 -0.43833348 1.0632501
-0.036852099 -0.42180204 1.0615001
-0.036849212 -0.41458702 1.0614167
-0.036144555 -0.35507551 1.0618125
-0.041233048 -0.34547967 1.0632501
-0.039839763 -0.34876922 1.0645001
-0.042873781 -0.31311584 1.0682501
-0.042883813 -0.30450967 1.0685
-0.04275338 -0.29781151 1.06525
-0.048319478 -0.13426697 1.06075
-0.045462191 -0.048112042 1.061125
-0.049826514 -0.035219565 1.06225
-0.030152677 -0.59237772 1.079
-0.030075829 -0.58467603 1.0762501
-0.030103775 -0.56479782 1.07725
-0.031438276 -0.52080321 1.0730001
-0.031540826 -0.51667219 1.0765001
-0.032874301 -0.4842245 1.0724375
-0.033016074 -0.47464862 1.0770625
-0.034420833 -0.46153241 1.0753751
-0.034416832 -0.45929495 1.07525
-0.035900254 -0.43851304 1.0760626
-0.035970848 -0.40507504 1.0781786
-0.036010765 -0.39894688 1.079375
-0.035959333 -0.38305536 1.0778333
-0.03587791 -0.37490767 1.075393
-0.035351545 -0.36528456 1.0760001
-0.040288873 -0.35051528 1.0765001
-0.037220959 -0.35349822 1.0756043
-0.041254304 -0.34754679 1.0763334
-0.038141593 -0.34942254 1.077625
-0.042579379 -0.29731044 1.079125
-0.046827644 -0.041503824 1.076
-0.050260402 0.05441995 1.0715001
-0.047380023 0.05879961 1.072
-0.030229526 -0.60121065 1.08175
-0.030222541 -0.59960741 1.0815001
-0.030271443 -0.58297783 1.08325
-0.030376237 -0.57542968 1.087
-0.033787355 -0.46526057 1.0830501
-0.034780357 -0.45510635 1.0866072
-0.036255151 -0.43445459 1.0867001
-0.036290176 -0.42487121 1.08775
-0.036119197 -0.41517648 1.082625
-0.036080275 -0.39385948 1.0814584
-0.028963838 -0.39891011 1.0892501
-0.036048301 -0.38765985 1.0805001
-0.040766053 -0.35024244 1.0892501
-0.041834116 -0.34440285 1.0841428
-0.042145997 -0.33547127 1.0867918
-0.042154074 -0.30095181 1.087
-0.043536 -0.29298228 1.0847499
-0.043102566 -0.28748575 1.0861667
-0.049207747 -0.10455821 1.08025
-0.048605304 -0.038111337 1.0831251
-0.03060329 -0.58492023 1.095125
-0.030582333 -0.56748003 1.0943751
-0.031958342 -0.50578964 1.0907501
-0.034888953 -0.4523133 1.09
-0.035020985 -0.4473525 1.094125
-0.03644865 -0.43411887 1.0925001
-0.03643753 -0.42364034 1.0921668
-0.034423377 -0.37308314 1.09395
-0.038671117 -0.35131323 1.0925833
-0.041023351 -0.34873933 1.0961251
-0.039210327 -0.34874767 1.0973126
-0.042289805 -0.33145019 1.0905
-0.036673851 -0.33708638 1.0992501
-0.04248048 -0.32626161 1.0954169
-0.042557392 -0.31423312 1.0974
-0.042493403 -0.30856705 1.0957501
-0.050016299 -0.10032974 1.098
-0.049788538 -0.10283257 1.0930001
-0.050084628 -0.097489491 1.0995001
-0.029508945 -0.60324955 1.10975
-0.030942125 -0.57190758 1.1072501
-0.030938629 -0.56284964 1.107125
-0.030874589 -0.55420589 1.1048335
-0.030902535 -0.54521757 1.1058334
-0.031005001 -0.5249995 1.1095001
-0.032340456 -0.50511199 1.1037918
-0.032404345 -0.49487364 1.1059722
-0.032479871 -0.48552591 1.1085501
-0.033921 -0.47167301 1.1065834
-0.03372686 -0.46997374 1.10025
-0.035377078 -0.42123049 1.10525
-0.034664132 -0.41623974 1.1064062
-0.035444524 -0.40553904 1.1073571
-0.035406422 -0.39537326 1.1061667
-0.035324488 -0.38474298 1.1036072
-0.041219842 -0.34593898 1.1013751
-0.039813813 -0.34743276 1.1037501
-0.042900596 -0.32523999 1.10625
-0.047449052 -0.041218325 1.1075001
-0.047149152 0.062597863 1.1005001
-0.02971502 -0.61427277 1.1175001
-0.02967846 -0.60671026 1.1161251
-0.031088836 -0.54600042 1.1125001
-0.031144725 -0.53189236 1.1145
-0.031018972 -0.52072746 1.11
-0.032540664 -0.48117191 1.110625
-0.033322334 -0.47483516 1.1116251
-0.034181193 -0.46573129 1.1150714
-0.034293957 -0.45818371 1.1187501
-0.035533115 -0.44788873 1.1101251
-0.034225028 -0.43304491 1.1164166
-0.035697162 -0.42806166 1.1152501
-0.034309283 -0.38261968 1.1192501
-0.040849824 -0.344578 1.1138612
-0.04925843 -0.1501243 1.1145
-0.050710969 -0.036910504 1.11325
-0.049203184 -0.038417775 1.11325
-0.02982471 -0.62261313 1.1216251
-0.029794795 -0.61971277 1.1205001
-0.029934395 -0.60393947 1.1257501
-0.030014168 -0.59829521 1.1287501
-0.031561568 -0.54512882 1.1294167
-0.031487055 -0.52553427 1.1267501
-0.033603959 -0.46138304 1.1210001
-0.034844715 -0.45627668 1.1243125
-0.035949223 -0.44552878 1.1231252
-0.035748024 -0.43660134 1.1264
-0.0339492 -0.41447672 1.1282918
-0.034557581 -0.4052349 1.1273501
-0.033339299 -0.3946344 1.121923
-0.034378253 -0.38946262 1.1215
-0.040703572 -0.34450141 1.1284167
-0.039178144 -0.34452802 1.1285001
-0.04986247 -0.13363671 1.1281667
-0.051132329 0.057010166 1.1225001
-0.04963411 0.058556031 1.123
-0.04813455 0.061624408 1.1235001
-0.02875668 -0.63022107 1.1395
-0.028738806 -0.62443268 1.1387917
-0.02875668 -0.61942136 1.1395
-0.03007067 -0.59367919 1.1308751
-0.030073995 -0.58876866 1.131
-0.033130318 -0.48376721 1.1307501
-0.033254843 -0.47867042 1.1350001
-0.031829379 -0.46956238 1.1390001
-0.033181593 -0.41014928 1.1325001
-0.032643337 -0.40368602 1.1315833
-0.04082381 -0.34168908 1.1317501
-0.039270721 -0.34227803 1.1311667
-0.041752443 -0.33723745 1.1361251
-0.039343044 -0.33984074 1.13325
-0.041157 -0.32558739 1.1303751
-0.050065041 -0.14338236 1.13275
-0.028772455 -0.63288236 1.140125
-0.028769301 -0.61814976 1.1400001
-0.030329932 -0.60767841 1.140625
-0.032073896 -0.53222096 1.14775
-0.031999379 -0.52478653 1.1450834
-0.031875953 -0.51349247 1.1406667
-0.032030232 -0.50510937 1.1461875
-0.032108828 -0.49779776 1.149
-0.033499002 -0.48373353 1.1433334
-0.032513767 -0.47723588 1.1450834
-0.035088401 -0.4610478 1.1446668
-0.034887206 -0.45689529 1.1482501
-0.042712189 -0.33374113 1.14125
-0.05075011 -0.12046794 1.1482501
-0.050783258 -0.1143228 1.149
-0.047572315 -0.043450262 1.146625
-0.051415347 -0.037212595 1.14575
-0.049119946 -0.03956522 1.1465001
-0.04803719 0.06593699 1.1454166
-0.027571572 -0.64164335 1.1545
-0.027522815 -0.63504922 1.1524584
-0.027499927 -0.62906259 1.1515001
-0.030818533 -0.60020632 1.159
-0.032255538 -0.48366323 1.15425
-0.033551823 -0.45305151 1.1559
-0.033855479 -0.44898665 1.1555001
-0.032748248 -0.41297898 1.1532501
-0.041004188 -0.34113863 1.1585001
-0.041026305 -0.33896834 1.1591251
-0.049666196 -0.15929127 1.15925
-0.050937947 -0.1084305 1.1525
-0.052385014 -0.089510955 1.1500001
-0.052749433 0.057245299 1.1580001
-0.047722712 0.065427542 1.1502501
-0.026326124 -0.64395666 1.1686251
-0.026945874 -0.6371544 1.1680502
-0.029434273 -0.62611508 1.1663501
-0.032486085 -0.50128579 1.1625
-0.032522764 -0.49633065 1.1638125
-0.031024611 -0.48732138 1.1667501
-0.034016624 -0.46448475 1.161
-0.033230394 -0.45898318 1.161
-0.048355423 -0.18381897 1.1655
-0.048459146 -0.17947042 1.1680001
-0.050049111 -0.15340053 1.1681876
-0.049885772 -0.15763119 1.1643751
-0.051556714 -0.10500854 1.1665001
-0.052436925 -0.036368728 1.1685001
-0.026373992 -0.6506747 1.17075
-0.026362728 -0.64881235 1.1702501
-0.027947711 -0.63375998 1.1702501
-0.02955162 -0.62227464 1.171
-0.029665183 -0.61733925 1.1755002
-0.031363644 -0.60603166 1.1795001
-0.03125063 -0.57838851 1.1752501
-0.031130973 -0.56032264 1.17075
-0.031132635 -0.55440766 1.1708125
-0.031137619 -0.549344 1.171
-0.028951602 -0.53548104 1.1788751
-0.031177508 -0.52464187 1.1725
-0.03292622 -0.50089866 1.1782501
-0.03292622 -0.49770814 1.1782501
-0.032964647 -0.42242461 1.179625
-0.050294567 -0.14540866 1.1739167
-0.050501645 -0.13962738 1.17875
-0.05196923 -0.085155703 1.1758333
-0.051744554 0.059460711 1.17075
-0.050169606 0.061058868 1.171
-0.048604354 0.064257227 1.1715001
-0.025081227 -0.65435451 1.1845834
-0.026100848 -0.64628595 1.1871501
-0.028355194 -0.6365689 1.1873126
-0.031483296 -0.57628292 1.184
-0.031470004 -0.5680272 1.1835001
-0.031499915 -0.54531085 1.184625
-0.030012183 -0.53455794 1.18925
-0.029245043 -0.5374158 1.1861786
-0.031599633 -0.5237062 1.188375
-0.031538695 -0.51787657 1.1860833
-0.05069444 -0.15137476 1.1832501
-0.050690871 -0.14495794 1.1831666
-0.050635532 -0.13439347 1.1818751
-0.050822966 -0.12846962 1.18625
-0.052429624 -0.10036303 1.1862501
-0.052473817 -0.094018005 1.18725
-0.052429624 -0.085908391 1.1862501
-0.04922669 -0.040945601 1.1865001
-0.051719032 -0.036987588 1.188375
-0.048016205 0.067030102 1.1830834
-0.022820584 -0.65711379 1.1969168
-0.026311547 -0.64630228 1.1919168
-0.028530428 -0.63321882 1.1946501
-0.030132055 -0.61833161 1.194
-0.03176472 -0.55555516 1.1945834
-0.03003742 -0.53259027 1.19025
-0.031714305 -0.51510799 1.1926875
-0.03338033 -0.42775154 1.1945001
-0.049413394 -0.17332835 1.191
-0.049566381 -0.16375291 1.1946875
-0.049662326 -0.1588068 1.197
-0.051251404 -0.12388106 1.19625
-0.051401354 -0.11937348 1.1997501
-0.048021045 -0.047770649 1.1965001
-0.047990941 0.067206316 1.19575
-0.024696171 -0.65307546 1.2049167
-0.026890248 -0.64588386 1.2040358
-0.028691033 -0.63109672 1.201375
-0.028781584 -0.62900794 1.2051667
-0.030930312 -0.51269573 1.2040834
-0.028885074 -0.51664007 1.2095001
-0.032048348 -0.50992918 1.20525
-0.048315365 -0.19421797 1.2038335
-0.049802348 -0.16819319 1.2003751
-0.05001498 -0.15666932 1.2055001
-0.050160192 -0.14321062 1.2090001
-0.051433489 -0.11700983 1.2005
-0.04831202 -0.046022266 1.20375
-0.024753088 -0.65461522 1.21575
-0.027363792 -0.64302361 1.2146876
-0.027649894 -0.63514614 1.2169287
-0.030680945 -0.62465709 1.2157501
-0.028983586 -0.62848985 1.2136251
-0.029094039 -0.55996412 1.21825
-0.030554764 -0.540124 1.2107501
-0.030554764 -0.53848469 1.2107501
-0.030666223 -0.52399701 1.2151667
-0.029016422 -0.52063441 1.215
-0.045596316 -0.23421337 1.2183125
-0.045609575 -0.22850485 1.2186667
-0.048883937 -0.20034599 1.2180001
-0.048577912 -0.19253618 1.2103751
-0.04861303 -0.187756 1.2112501
-0.05037801 -0.15205359 1.2142501
-0.050429873 -0.14479581 1.2155001
-0.050564706 -0.13941519 1.21875
-0.051979739 -0.11414604 1.21325
-0.052161828 -0.081577487 1.2175001
-0.052226093 -0.07837709 1.2190001
-0.048934106 -0.04207579 1.2192501
-0.052237023 -0.037123192 1.2192501
-0.053578768 0.059927128 1.2122501
-0.051110778 0.062382579 1.2121251
-0.048633095 0.066464953 1.21175
-0.022697169 -0.66155136 1.2292501
-0.024737155 -0.65407008 1.2271876
-0.026004722 -0.64435726 1.2282001
-0.02767615 -0.6354109 1.2285835
-0.030964853 -0.62711477 1.2270001
-0.047600269 -0.21602187 1.2274375
-0.04913478 -0.18645601 1.2242501
-0.049265217 -0.17199336 1.2275001
-0.049159862 -0.16665083 1.224875
-0.050652873 -0.15453434 1.220875
-0.050668433 -0.14796934 1.2212501
-0.050751407 -0.13329904 1.22325
-0.051010717 -0.12732756 1.2295001
-0.052274287 -0.11231482 1.220125
-0.052593831 -0.093888752 1.2275834
-0.05261704 -0.085614175 1.2281251
-0.049325418 -0.040748268 1.2290001
-0.053171869 -0.035732955 1.2281667
-0.049024407 0.065345906 1.2215
-0.022858202 -0.65650439 1.2380418
-0.022729483 -0.63249254 1.2310001
-0.025554016 -0.62636775 1.2331667
-0.029034203 -0.6020152 1.2391667
-0.028898453 -0.59794509 1.23815
-0.031122576 -0.58355623 1.23325
-0.031229833 -0.54703081 1.2375001
-0.046136655 -0.22780821 1.2327501
-0.047864463 -0.21137442 1.2342501
-0.047922634 -0.20995818 1.2357501
-0.049455859 -0.18266925 1.2322501
-0.049508534 -0.17534404 1.2335626
-0.049591307 -0.16434787 1.235625
-0.051228531 -0.12285152 1.23475
-0.051373743 -0.11901288 1.23825
-0.052815188 -0.10596987 1.2327501
-0.052697368 -0.080749698 1.23
-0.02405525 -0.65357894 1.2420417
-0.026048834 -0.6440115 1.2435833
-0.028118161 -0.63472074 1.2432001
-0.029290849 -0.62786561 1.2441251
-0.031343397 -0.60787576 1.2420001
-0.031444341 -0.58537185 1.2460001
-0.046666849 -0.2236709 1.2469168
-0.047556378 -0.21375434 1.2481251
-0.048407383 -0.20870183 1.24825
-0.049867235 -0.18250644 1.2425001
-0.049807034 -0.17892565 1.2410001
-0.050148178 -0.15139148 1.2495
-0.050118074 -0.14453678 1.2487501
-0.048368603 -0.04810816 1.2472501
-0.051850867 -0.036359992 1.24975
-0.021892451 -0.66122425 1.2546875
-0.02302175 -0.65524113 1.256075
-0.019800659 -0.65593243 1.2567501
-0.024889732 -0.64782387 1.2558751
-0.031658847 -0.55114853 1.2545
-0.029882139 -0.5581913 1.25125
-0.031671468 -0.54796988 1.2550001
-0.04533574 -0.2424708 1.2568334
-0.045281634 -0.23708002 1.2553334
-0.047025513 -0.21518047 1.2565
-0.04855863 -0.20426786 1.2521502
-0.048568968 -0.19752853 1.2524167
-0.050178278 -0.16163893 1.2502501
-0.050308716 -0.15469354 1.2535001
-0.050534472 -0.14573836 1.259125
-0.050345507 -0.13499887 1.2544167
-0.050509389 -0.12862688 1.2585001
-0.052203525 -0.11667617 1.2582501
-0.048649758 -0.043292705 1.2545
-0.054415982 -0.034108154 1.2542001
-0.057042725 0.058513574 1.2522501
-0.051909756 0.063544847 1.2511667
-0.048596438 0.067884281 1.2531251
-0.030182652 -0.63224673 1.2638334
-0.045693453 -0.25381464 1.26675
-0.045661889 -0.24849594 1.2658751
-0.045797154 -0.23376301 1.2696251
-0.047483984 -0.21298826 1.2687501
-0.04897939 -0.19492275 1.263
-0.049086034 -0.17478459 1.2657501
-0.050599691 -0.16128942 1.2607501
-0.050599691 -0.15616885 1.2607501
-0.050609723 -0.14083362 1.261
-0.050823778 -0.13456661 1.2663335
-0.052500863 -0.09507329 1.2654167
-0.052580383 -0.084912241 1.2673334
-0.052659903 -0.078171 1.26925
-0.057395756 -0.031540319 1.2600001
-0.059149198 -0.029858032 1.261
-0.061816204 0.052423313 1.2690001
-0.058232516 0.0552123 1.2689376
-0.03033888 -0.63122332 1.270375
-0.030347835 -0.62624866 1.27075
-0.030491127 -0.60673082 1.2767501
-0.028711215 -0.60911286 1.2745001
-0.047867596 -0.21124524 1.279
-0.049396276 -0.19226892 1.2737501
-0.04943506 -0.18552044 1.2747501
-0.051071271 -0.12546183 1.2725
-0.052946866 -0.11315177 1.2761668
-0.053025007 -0.10501418 1.2780501
-0.052832771 -0.093946129 1.2734166
-0.052846603 -0.087071054 1.2737501
-0.049357496 -0.040475599 1.27275
-0.053805009 -0.032658432 1.2760209
-0.049532011 -0.038024224 1.2772501
-0.061581004 -0.021575077 1.276
-0.056465767 -0.025062356 1.2776102
-0.061554864 -0.015521541 1.2754583
-0.055531975 -0.015529659 1.2760348
-0.061677534 -0.0094965575 1.2780001
-0.056396123 -0.0088337082 1.276
-0.06104226 0.017859047 1.2792
-0.059132904 0.019936647 1.279125
-0.061682362 0.025111878 1.2781
-0.057683825 0.025418442 1.2790138
-0.061683565 0.034630422 1.2781252
-0.058069453 0.03388514 1.2790276
-0.062354188 0.044867676 1.274146
-0.058362618 0.044952348 1.2765156
-0.061291445 0.050745461 1.2700001
-0.056944668 0.054999594 1.2754583
-0.052089375 0.063962966 1.2763751
-0.030604566 -0.6063875 1.2815001
-0.030574713 -0.59626245 1.2802501
-0.02883793 -0.5944711 1.2801251
-0.046257064 -0.23176946 1.2823751
-0.046315677 -0.22510949 1.284
-0.048065953 -0.20602986 1.2843001
-0.049767923 -0.16765308 1.2833334
-0.051487669 -0.12156494 1.2828751
-0.053116284 -0.10831593 1.2802501
-0.04986164 -0.054815635 1.28575
-0.050950658 -0.032144923 1.284
-0.049929507 -0.031358283 1.2875
-0.051420443 -0.025132943 1.2812002
-0.04910202 -0.024516124 1.2829689
-0.048710778 -0.016327338 1.2822084
-0.06113597 -0.0078072427 1.28475
-0.052057181 -0.0083733909 1.2826667
-0.049784079 -0.0095392838 1.2837501
-0.062220465 0.0096210651 1.28925
-0.061292786 0.013408361 1.2844501
-0.057626903 0.017403537 1.2841667
-0.054910943 0.021710092 1.2816668
-0.05543527 0.037004225 1.2804168
-0.055465739 0.045241382 1.2845
-0.055796884 0.053134508 1.2861501
-0.053510427 0.060265828 1.2897501
-0.049648352 0.066755444 1.2802501
-0.028279666 -0.61680138 1.29425
-0.028667411 -0.60626596 1.2985834
-0.046721485 -0.22182111 1.2952501
-0.048457053 -0.20157313 1.29475
-0.048625469 -0.19963779 1.29925
-0.04856465 -0.18357712 1.2976251
-0.048541263 -0.17821935 1.2970001
-0.050198544 -0.16297027 1.2944376
-0.050213892 -0.15630342 1.2948335
-0.050210666 -0.14635302 1.2947501
-0.050375476 -0.13980131 1.299
-0.051999386 -0.11750554 1.295625
-0.048322946 -0.042808536 1.2911668
-0.050074935 -0.035819117 1.2912501
-0.048452377 -0.03503352 1.2946252
-0.047620576 -0.025858032 1.2958751
-0.046718478 -0.0154702 1.2951666
-0.061435014 -0.003474771 1.2910937
-0.055287171 -0.0048245164 1.29325
-0.048475765 -0.0096247382 1.2952501
-0.061398569 0.0048694462 1.2919999
-0.059121042 0.0088058766 1.297875
-0.060509492 0.011373244 1.2900001
-0.056751948 0.015183531 1.2954644
-0.053691939 0.024547046 1.2941251
-0.053667739 0.0350505 1.2935417
-0.053796701 0.044789128 1.2966502
-0.054201383 0.05506549 1.2958751
-0.051835705 0.062795825 1.2915502
-0.027710211 -0.62282568 1.30875
-0.029505307 -0.61975497 1.3097501
-0.040141173 -0.35546225 1.3095001
-0.039903603 -0.35864601 1.3017501
-0.045444559 -0.28088966 1.309
-0.045396827 -0.27528381 1.3076251
-0.045192864 -0.26523361 1.3017501
-0.047226485 -0.22067344 1.3092501
-0.04874523 -0.19483666 1.3024499
-0.048810259 -0.18582614 1.3041875
-0.048815716 -0.17569359 1.3043333
-0.0504288 -0.15403381 1.300375
-0.050562918 -0.14561403 1.3038334
-0.050637245 -0.13610825 1.30575
-0.052470967 -0.11326576 1.3073751
-0.052501068 -0.092962921 1.308125
-0.052556254 -0.088628359 1.3095001
-0.047055148 -0.029121818 1.3045001
-0.054253325 -0.00197153 1.3076876
-0.056858294 0.004345166 1.3054605
-0.055792876 0.013594946 1.30225
-0.052328825 0.024735993 1.3038334
-0.052420795 0.035391044 1.306125
-0.052488029 0.045173656 1.3078001
-0.052536186 0.054962639 1.309
-0.050739042 0.063793212 1.3083751
-0.048962303 0.06821543 1.3082501
-0.029097669 -0.61608422 1.311375
-0.031285197 -0.57907909 1.3100001
-0.038550712 -0.38566193 1.3157501
-0.040394064 -0.35413149 1.3177501
-0.045600787 -0.26051453 1.3135
-0.045574754 -0.25503397 1.3127501
-0.045509655 -0.24757117 1.3108751
-0.047382791 -0.21428593 1.3135834
-0.047460951 -0.20840545 1.3157501
-0.049171265 -0.17163555 1.3138334
-0.049383342 -0.16880539 1.3195001
-0.050913554 -0.13151744 1.312875
-0.051099375 -0.12753658 1.3176666
-0.052787025 -0.11127711 1.31525
-0.052753583 -0.10497759 1.3144168
-0.0526198 -0.096132256 1.3110834
-0.05263903 -0.083439738 1.3115625
-0.047397822 -0.035853896 1.314
-0.051092915 -0.00087100302 1.3175001
-0.052937455 0.0064100344 1.319
-0.053821463 0.015144283 1.3144001
-0.050974954 0.024936741 1.3144585
-0.051110364 0.034819741 1.31795
-0.027651573 -0.62597674 1.3229001
-0.038711857 -0.37475181 1.3212501
-0.040566493 -0.35116506 1.3233751
-0.046069466 -0.24342692 1.3270001
-0.047632284 -0.20647871 1.3205
-0.049654678 -0.16523732 1.32675
-0.051325593 -0.12272527 1.3235
-0.053098068 -0.078794152 1.3230001
-0.051876087 0.014547084 1.3204063
-0.049445719 0.017014585 1.3211668
-0.049133185 0.024237905 1.3248125
-0.049720176 0.032398321 1.3285
-0.051227029 0.044734243 1.3209584
-0.051306207 0.054655802 1.3230001
-0.051359527 0.060987264 1.3243752
-0.025315994 -0.63172579 1.332
-0.025684461 -0.62722558 1.3324001
-0.030102283 -0.59430116 1.3362501
-0.0391367 -0.38609827 1.3357501
-0.039165996 -0.3737185 1.33675
-0.039158676 -0.3664093 1.3365002
-0.04091518 -0.3514733 1.3347501
-0.039202623 -0.35957542 1.3380001
-0.040945835 -0.34992811 1.3357501
-0.046257522 -0.23539817 1.3324167
-0.046416637 -0.22897109 1.337
-0.04807416 -0.20478424 1.3327501
-0.048263535 -0.19834331 1.3380001
-0.049776312 -0.16114499 1.33
-0.049874555 -0.155146 1.332625
-0.051926687 -0.1205382 1.3390001
-0.051752176 -0.087610468 1.3345001
-0.046338525 -0.03883297 1.3347501
-0.050008669 0.045250174 1.3362083
-0.050028931 0.05522247 1.33675
-0.049897946 0.063199148 1.33325
-0.048520543 -0.19211516 1.3451251
-0.048669342 -0.18722576 1.3492501
-0.050478049 -0.1506339 1.3487501
-0.05227571 -0.093973435 1.348
-0.052125439 -0.084148303 1.344125
-0.052139979 -0.062781453 1.3445001
-0.050309632 -0.056399666 1.3442501
-0.039678738 -0.36027527 1.3542501
-0.041413303 -0.35117906 1.3510001
-0.041607447 -0.34547365 1.3573335
-0.043467153 -0.33553183 1.358
-0.045320321 -0.28413907 1.3584167
-0.045317542 -0.27369633 1.3583335
-0.04718475 -0.22723916 1.3591251
-0.048800096 -0.18223213 1.352875
-0.04896092 -0.17364322 1.3573333
-0.048933864 -0.16436575 1.3565835
-0.050662059 -0.14385234 1.3536668
-0.050632428 -0.13460869 1.352875
-0.05075562 -0.1275916 1.3561667
-0.052450221 -0.11442686 1.3525
-0.052493848 -0.10536073 1.3536251
-0.052411437 -0.099705271 1.3515
-0.041911431 -0.34059235 1.36725
-0.045606688 -0.30166459 1.3670001
-0.045514941 -0.29582718 1.3642501
-0.045694262 -0.2642284 1.3696251
-0.047241166 -0.22198425 1.3607501
-0.047327958 -0.21685344 1.36325
-0.052934971 -0.080371834 1.365
-0.052934971 -0.077599645 1.365
-0.047466829 -0.034224998 1.3672501
-0.038340569 -0.40447113 1.3720001
-0.040403899 -0.3593913 1.3790001
-0.043127395 -0.33730638 1.3765001
-0.045731798 -0.25516537 1.3707501
-0.045723457 -0.24584167 1.3705001
-0.047562301 -0.21236387 1.3700001
-0.047729373 -0.2042627 1.3748126
-0.04959818 -0.16101226 1.3750001
-0.049742464 -0.15774649 1.3790001
-0.051441759 -0.12466443 1.3745
-0.051376268 -0.091050059 1.37275
-0.051383287 -0.08548592 1.3729377
-0.053439114 -0.073674366 1.378
-0.05335186 -0.069828711 1.3757501
-0.035002649 -0.45255485 1.3870001
-0.035021573 -0.44904155 1.3877501
-0.03877721 -0.40203321 1.3876251
-0.038703851 -0.39470902 1.385
-0.040451512 -0.35420609 1.380625
-0.04055528 -0.3463681 1.3841667
-0.043143023 -0.33643737 1.3870001
-0.046065424 -0.30750275 1.3807501
-0.046069592 -0.24583262 1.3808751
-0.051900227 -0.12295912 1.3867501
-0.051862802 -0.11161313 1.3857501
-0.051766116 -0.10391641 1.3831667
-0.051703744 -0.096307091 1.3815001
-0.035160374 -0.45742387 1.3932501
-0.035097282 -0.44342211 1.3907501
-0.043814171 -0.33511019 1.3984376
-0.046432413 -0.24117397 1.3917501
-0.046432413 -0.23834746 1.3917501
-0.048291355 -0.20055243 1.391
-0.048577771 -0.1922694 1.39925
-0.048495319 -0.17303041 1.3968751
-0.048473619 -0.16728149 1.39625
-0.050391749 -0.15507674 1.3970001
-0.050310589 -0.14160882 1.3947501
-0.050346658 -0.13383393 1.39575
-0.052368049 -0.12217297 1.39925
-0.052286964 -0.11442024 1.3970834
-0.052134138 -0.10465394 1.3930001
-0.05206864 -0.098870449 1.39125
-0.052087355 -0.081004716 1.3917501
-0.029700477 -0.61912882 1.40275
-0.035519991 -0.46591362 1.4075
-0.035450593 -0.44281363 1.40475
-0.035475828 -0.43868816 1.40575
-0.039175428 -0.3824349 1.401875
-0.039192889 -0.3769092 1.4025
-0.04111807 -0.34389329 1.403375
-0.044867516 -0.33115843 1.4017501
-0.045023553 -0.32849729 1.406625
-0.046835542 -0.23471355 1.4038334
-0.046878636 -0.22541822 1.4051251
-0.048632741 -0.18489905 1.4008335
-0.050581124 -0.14521763 1.4022501
-0.050806571 -0.090561226 1.4085001
-0.050829113 -0.087739691 1.4091251
-0.052692402 -0.077180304 1.4079167
-0.029938674 -0.61930835 1.414
-0.037732095 -0.43417749 1.419
-0.039451383 -0.37461632 1.4117501
-0.041502625 -0.34135586 1.4165001
-0.043255091 -0.33527413 1.4110833
-0.045213602 -0.32510275 1.4125626
-0.045413654 -0.26315343 1.4188126
-0.045379646 -0.25719708 1.4177501
-0.048977014 -0.16710865 1.41075
-0.051041037 -0.093853727 1.4150001
-0.050971895 -0.083200634 1.4130834
-0.030113351 -0.62099606 1.42225
-0.036031026 -0.44168749 1.4277501
-0.039779738 -0.37484342 1.4235001
-0.043689352 -0.33285081 1.4252501
-0.045755744 -0.32223064 1.4295001
-0.045555692 -0.28035495 1.4232501
-0.045543686 -0.2745021 1.422875
-0.045467667 -0.26827359 1.4205
-0.045699727 -0.25611123 1.4277501
-0.047408272 -0.22026938 1.4210001
-0.047479164 -0.21481779 1.423125
-0.051289026 -0.12896118 1.421875
-0.051230408 -0.097085498 1.4202501
-0.053313054 -0.072303116 1.4245001
-0.034210723 -0.4489755 1.4325001
-0.038217373 -0.43684256 1.43725
-0.039968364 -0.37274793 1.43025
-0.039973024 -0.3650448 1.4304167
-0.04205199 -0.34101593 1.43525
-0.043414224 -0.33504042 1.4374167
-0.045815758 -0.3168388 1.431375
-0.045939788 -0.2924349 1.43525
-0.047983773 -0.20736487 1.4382501
-0.049805887 -0.16508067 1.4346251
-0.05181206 -0.12541464 1.4363751
-0.051867675 -0.11451335 1.4379168
-0.051924784 -0.10619737 1.4395001
-0.049801547 -0.09029071 1.4345001
-0.051708356 -0.080523401 1.4335001
-0.049879659 -0.084594138 1.4367501
-0.051699337 -0.078568824 1.4332501
-0.036542058 -0.444031 1.4480001
-0.038322076 -0.42389357 1.4411875
-0.038335703 -0.41477013 1.4417
-0.03837692 -0.40935519 1.4432501
-0.040436443 -0.35360345 1.447
-0.046147842 -0.25276405 1.44175
-0.046235867 -0.24933703 1.4445001
-0.048075523 -0.20581034 1.4410001
-0.050322302 -0.14422292 1.4495001
-0.051942818 -0.10233492 1.4400001
-0.034760006 -0.4502722 1.4555001
-0.038702656 -0.41085905 1.4555001
-0.040673979 -0.35173932 1.4555001
-0.042550083 -0.34112263 1.4522501
-0.043881793 -0.33472097 1.4529167
-0.044547655 -0.32955185 1.4532501
-0.046451919 -0.24755499 1.4512501
-0.046569284 -0.23537298 1.4549166
-0.048676051 -0.2004796 1.4590001
-0.048688561 -0.19460323 1.4593751
-0.050569661 -0.16366781 1.456625
-0.050357014 -0.13843109 1.4505
-0.050435133 -0.097340204 1.4527501
-0.052438799 -0.075756028 1.45375
-0.034992848 -0.45130455 1.46525
-0.037027854 -0.42410865 1.4672501
-0.039001796 -0.40609115 1.46675
-0.042035051 -0.34496999 1.4686251
-0.04301887 -0.33891714 1.46825
-0.046816014 -0.2445439 1.462625
-0.047006726 -0.2276447 1.4685835
-0.050973244 -0.16199221 1.46825
-0.050883561 -0.15443294 1.4656668
-0.050843056 -0.14968142 1.4645001
-0.031150831 -0.62047911 1.4712501
-0.035112258 -0.45085397 1.47025
-0.037166655 -0.4456386 1.4727501
-0.045068771 -0.33141625 1.47025
-0.045068771 -0.32942563 1.47025
-0.047089417 -0.22206919 1.4711667
-0.047201443 -0.21660733 1.4746666
-0.049218193 -0.18673331 1.4752501
-0.05104702 -0.13336003 1.4703751
-0.052191231 -0.073854864 1.4746251
-0.053115141 -0.068758413 1.4725001
-0.037458971 -0.44444808 1.4843334
-0.043473013 -0.34048611 1.4837501
-0.043473013 -0.33847719 1.4837501
-0.045497924 -0.3265304 1.4842501
-0.051467963 -0.131449 1.4825001
-0.051467963 -0.103348 1.4825001
-0.029539682 -0.63061559 1.4905001
-0.035709307 -0.45244685 1.4952501
-0.036644042 -0.44544488 1.492125
-0.037608288 -0.43882766 1.4902501
-0.04392349 -0.33893991 1.499125
-0.045858108 -0.32101676 1.4960001
-0.045911752 -0.30111367 1.49775
-0.045850445 -0.2946375 1.4957501
-0.045743156 -0.28788546 1.4922501
-0.045850445 -0.24198213 1.4957501
-0.045835119 -0.23987678 1.4952501
-0.047752254 -0.21408641 1.4918752
-0.051893245 -0.13051137 1.49475
-0.051875889 -0.12439868 1.4942501
-0.0519135 -0.11436131 1.4953333
-0.051945321 -0.075944908 1.49625
-0.048228376 -0.21112098 1.5067501
-0.048284393 -0.20728134 1.5085001
-0.036145151 -0.45284629 1.5135001
-0.036252618 -0.44699839 1.5180001
-0.042378623 -0.34799966 1.5165001
-0.044388622 -0.33637559 1.5150001
-0.046340905 -0.30597514 1.5117501
-0.048348408 -0.21369153 1.5105001
-0.052600607 -0.071774393 1.515125
-0.044623017 -0.3329967 1.5230001
-0.046777721 -0.25307429 1.526
-0.0465938 -0.22738343 1.5200001
-0.048728503 -0.20506497 1.5223751
-0.050723679 -0.17288916 1.520375
-0.030354723 -0.62624097 1.531625
-0.042823415 -0.34335431 1.5324167
-0.043579627 -0.33623829 1.5346667
-0.044996582 -0.32954645 1.53575
-0.047199212 -0.22408374 1.5397501
-0.049108598 -0.20043321 1.53425
-0.049108598 -0.1973173 1.53425
-0.051295012 -0.1654699 1.5375001
-0.051211603 -0.15481071 1.5350001
-0.030550431 -0.62714803 1.5415001
-0.051687025 -0.11009887 1.5492501
-0.030763481 -0.62731826 1.55225
-0.033014059 -0.60481369 1.5592501
-0.039147697 -0.42528561 1.5512501
-0.043419577 -0.336564 1.55375
-0.047582388 -0.22275007 1.5522501
-0.051887199 -0.14000525 1.55525
-0.051958095 -0.13386925 1.5573751
-0.03100791 -0.62806529 1.5645834
-0.033029936 -0.61144102 1.5600001
-0.033154331 -0.60208309 1.5658751
-0.033156976 -0.5989508 1.5660001
-0.039425295 -0.4219557 1.56225
-0.044672467 -0.33279723 1.56075
-0.052079033 -0.12572736 1.5610001
-0.052129079 -0.1195026 1.5625001
-0.02916427 -0.63619238 1.5795001
-0.041999891 -0.36887413 1.5795001
-0.044058818 -0.33511585 1.5766251
-0.046161234 -0.32954365 1.5755001
-0.048237611 -0.21622923 1.5736251
-0.031358041 -0.63087326 1.5822501
-0.03144392 -0.62507778 1.5865835
-0.033516917 -0.60116631 1.5830001
-0.042036451 -0.36277318 1.580875
-0.04205972 -0.35655004 1.58175
-0.04639563 -0.32264283 1.5835001
-0.048601627 -0.21142182 1.5855001
-0.048601627 -0.20712848 1.5855001
-0.050885055 -0.18400702 1.5897501
-0.029533556 -0.63991678 1.5995001
-0.031583477 -0.61490369 1.5936251
-0.044579297 -0.33583456 1.5952501
-0.029547404 -0.63155025 1.6002501
-0.029572792 -0.62558693 1.6016251
-0.034030363 -0.60275882 1.6072501
-0.04905377 -0.20580545 1.6002501
-0.051389188 -0.17061378 1.6055001
-0.027700838 -0.65319824 1.6190001
-0.02873029 -0.64627284 1.615375
-0.029766668 -0.63623631 1.6121252
-0.045110248 -0.33437049 1.6142501
-0.030078251 -0.62304652 1.6290001
-0.032195378 -0.61582661 1.6245
-0.034411479 -0.60400838 1.6252501
-0.03869155 -0.44307131 1.6201251
-0.03870349 -0.43881956 1.620625
-0.044416465 -0.33519268 1.628875
-0.049728151 -0.20314376 1.6222501
-0.052093368 -0.14430572 1.6275001
-0.052089367 -0.13768472 1.6273751
-0.032398522 -0.61417902 1.6347501
-0.043601979 -0.33632231 1.6397501
-0.04557367 -0.32639655 1.6308333
-0.047944836 -0.23371387 1.6363751
-0.048021749 -0.2274323 1.6390001
-0.052341431 -0.12285262 1.6352501
-0.052349433 -0.11844266 1.6355001
-0.025925588 -0.66054803 1.6455001
-0.027404346 -0.65592647 1.6450834
-0.034739658 -0.60310435 1.6407501
-0.043834645 -0.34034893 1.6485001
-0.048131619 -0.22350429 1.64275
-0.050486833 -0.19955324 1.6470001
-0.030500621 -0.62620419 1.651875
-0.032840721 -0.61470771 1.6570625
-0.043887824 -0.33517486 1.6505001
-0.030807588 -0.6279881 1.6685001
-0.044286683 -0.33032885 1.6655
-0.048834808 -0.21210206 1.6667501
-0.051099908 -0.1794063 1.6670001
-0.02301473 -0.66865182 1.677
-0.033159062 -0.61160636 1.673125
-0.03322925 -0.60646719 1.6766667
