# .PCD v0.7 - Point Cloud Data file format
VERSION 0.7
FIELDS x y z
SIZE 4 4 4
TYPE F F F
COUNT 1 1 1
WIDTH 971
HEIGHT 1
VIEWPOINT 0 0 0 1 0 0 0
POINTS 971
DATA ascii
0.22754097 0.050819471 0.74475002
0.22972788 -0.32436293 0.75936115
0.22950034 -0.3144002 0.75922734
0.22820514 -0.42364207 0.76692724
0.23009653 -0.42461285 0.76400006
0.22627258 -0.41461441 0.76317048
0.22593534 -0.39496046 0.76358116
0.22647908 -0.38461003 0.76526791
0.22687618 -0.37576851 0.76685715
0.22809356 -0.36606246 0.76636541
0.2282735 -0.3539595 0.76444447
0.23498538 -0.35071352 0.76513886
0.24090354 -0.35045153 0.76300001
0.22936687 -0.34049511 0.76675004
0.23514636 -0.34611791 0.76620334
0.22847162 -0.33421797 0.76329541
0.23388697 -0.33780572 0.76131725
0.22793013 -0.32503828 0.76390201
0.22738566 -0.31517532 0.76393753
0.22704227 -0.30486128 0.76537514
0.22717127 -0.29613352 0.76785707
0.22634485 -0.2847842 0.76461667
0.22618397 -0.27367073 0.76590174
0.22621074 -0.26498392 0.76588565
0.22552463 -0.25572795 0.76446778
0.22725827 -0.24462913 0.7643373
0.22613217 -0.23432647 0.76492047
0.2262532 -0.22517255 0.76426798
0.22583522 -0.21544537 0.76427776
0.22814493 -0.20727946 0.76563233
0.23350087 -0.20307052 0.76397455
0.22706792 -0.19273795 0.76405883
0.23366678 -0.19892488 0.76329178
0.22425245 -0.18519993 0.76328003
0.22463293 -0.17415337 0.76283103
0.22682628 -0.16578734 0.766473
0.22469477 -0.15415448 0.76313245
0.22408371 -0.14660321 0.76189476
0.22556607 -0.13405317 0.7640751
0.2260856 -0.12530074 0.76492047
0.22692013 -0.085470527 0.76736116
0.22640185 -0.073975511 0.76570952
0.22445054 -0.43065691 0.77487504
0.22569874 -0.42502448 0.77369153
0.2260453 -0.41658208 0.77303338
0.22679341 -0.40558389 0.77660418
0.2282971 -0.39489216 0.77628857
0.22702195 -0.38482764 0.77584094
0.22808029 -0.37493801 0.77514428
0.22770284 -0.36424962 0.77406895
0.22843507 -0.35538581 0.77546668
0.23020299 -0.35088095 0.77340001
0.22955039 -0.34388328 0.77615631
0.23065121 -0.3469438 0.77414286
0.22624503 -0.3331185 0.77168107
0.22539756 -0.32483217 0.77349532
0.22623008 -0.31480938 0.77521551
0.22613864 -0.30583945 0.77355957
0.22570679 -0.29467925 0.77217501
0.2270001 -0.28486782 0.77483833
0.22536665 -0.27506569 0.7728194
0.2249244 -0.26471508 0.77439588
0.22777738 -0.25471106 0.77751666
0.22623056 -0.24515982 0.77450842
0.22536063 -0.23477393 0.77334547
0.22439241 -0.22506405 0.77264851
0.22523727 -0.21388674 0.77338189
0.22768591 -0.20568711 0.77466661
0.23095229 -0.20195559 0.7720536
0.22762404 -0.19548002 0.77397227
0.23099597 -0.19924761 0.77254999
0.22459874 -0.18388675 0.77779835
0.22432591 -0.1753656 0.77627277
0.22474945 -0.16477755 0.77549994
0.22487636 -0.15540233 0.77596432
0.22537565 -0.14543466 0.77711838
0.22557001 -0.13460965 0.77481526
0.22553296 -0.12575161 0.77594632
0.22529797 -0.11469494 0.77587068
0.2259002 -0.10452153 0.77578288
0.22585893 -0.064419605 0.77277148
0.22912745 -0.052304059 0.7753334
0.22729585 -0.044805769 0.77384722
0.22918165 -0.033921175 0.77622372
0.23039803 -0.035597719 0.77582508
0.2282943 -0.026258592 0.77596432
0.22491421 -0.43405324 0.78480774
0.22498797 -0.42460844 0.78337502
0.22715439 -0.41679999 0.78530997
0.22755778 -0.40294474 0.7858001
0.22725706 -0.39552665 0.785465
0.22724448 -0.38543776 0.7863673
0.22878757 -0.37606445 0.78740007
0.22773395 -0.36560535 0.78521597
0.22905858 -0.35312915 0.78345829
0.23021846 -0.35315847 0.78925002
0.2290056 -0.34186643 0.78418756
0.23025626 -0.34710169 0.78422922
0.22656952 -0.33579186 0.78459615
0.22630255 -0.32670987 0.78761113
0.22604139 -0.31417868 0.78265625
0.22608966 -0.3057833 0.78437501
0.22706924 -0.29450271 0.78715539
0.227855 -0.28539869 0.78630883
0.22548661 -0.27393419 0.78455007
0.22531152 -0.26518524 0.78263474
0.22679067 -0.25539407 0.78308332
0.22649856 -0.24509645 0.78539073
0.22544929 -0.23484012 0.78382504
0.22482075 -0.22402625 0.78431904
0.22590201 -0.2159086 0.78698814
0.22727032 -0.20463707 0.78522438
0.23015185 -0.20096035 0.785375
0.22761682 -0.19506481 0.78659523
0.23040828 -0.19958772 0.78625005
0.223757 -0.186088 0.78272063
0.22395301 -0.17369895 0.78472507
0.22457863 -0.15553622 0.78514135
0.22493441 -0.13504863 0.78450012
0.22622702 -0.0737096 0.78675014
0.22905241 -0.053854819 0.78283334
0.22823773 -0.045595858 0.78451562
0.22896311 -0.033537935 0.78422505
0.22829156 -0.024739482 0.7835626
0.2253052 -0.43534774 0.79473746
0.22752178 -0.41432306 0.79420513
0.2260727 -0.40581512 0.79302943
0.22719993 -0.37389329 0.79192311
0.23038507 -0.35411575 0.79258329
0.23075569 -0.34793559 0.79367507
0.22601901 -0.324076 0.79349309
0.22525477 -0.45193052 0.81602788
0.22651793 -0.44590911 0.81643182
0.2279918 -0.39642125 0.81556487
0.22865231 -0.38581321 0.81719452
0.22888872 -0.37550083 0.81693751
0.22881907 -0.36455145 0.8147223
0.23008494 -0.36298972 0.81765002
0.2289086 -0.35437009 0.81667238
0.22957981 -0.34686422 0.81808329
0.23106892 -0.34629759 0.81589133
0.22548053 -0.28568426 0.813375
0.22588716 -0.27511051 0.81697226
0.22386201 -0.263735 0.81292403
0.22612946 -0.25567853 0.81451935
0.22748539 -0.24575981 0.81547499
0.22599339 -0.23457462 0.81485218
0.22481877 -0.22487515 0.81422234
0.22572964 -0.20410182 0.81320143
0.22812347 -0.19680916 0.81441247
0.22454889 -0.45445934 0.82359374
0.22545245 -0.44535148 0.82338572
0.22680065 -0.43540314 0.8251667
0.22463088 -0.42620924 0.82438636
0.22558171 -0.41564763 0.82394451
0.22652519 -0.40386033 0.82540786
0.22869451 -0.3944208 0.82411903
0.22754228 -0.38406181 0.82486308
0.22783405 -0.37523064 0.82526392
0.22935955 -0.3656615 0.82481587
0.23014557 -0.36590704 0.82608336
0.22826687 -0.35537308 0.82627183
0.23051575 -0.35175785 0.82875001
0.22952446 -0.34521496 0.82118756
0.23057075 -0.34609133 0.82393759
0.2272236 -0.3346577 0.82393754
0.22649929 -0.32349917 0.82232147
0.22695178 -0.31556377 0.82270318
0.22591896 -0.3047438 0.82427096
0.22660759 -0.2949307 0.82515001
0.22816756 -0.28485852 0.82837504
0.2263898 -0.27427742 0.82672733
0.2248967 -0.26574796 0.82619232
0.22493398 -0.25455564 0.82334483
0.22596967 -0.24512084 0.82278931
0.2246889 -0.23485467 0.82264823
0.2268631 -0.20573273 0.82791251
0.22616422 -0.19312967 0.82662505
0.20596309 0.075949386 0.82643187
0.22606261 -0.4618592 0.83441669
0.22526476 -0.45414701 0.83725005
0.22756621 -0.44476244 0.83648616
0.22504357 -0.43475342 0.83307624
0.22559337 -0.42459866 0.83352679
0.22549658 -0.41559136 0.83329993
0.22648817 -0.40427434 0.83506256
0.22769485 -0.39611095 0.83549386
0.22702467 -0.38533512 0.83587503
0.22730975 -0.37484017 0.83485019
0.22844148 -0.36571717 0.83509028
0.23001608 -0.36621436 0.83100003
0.22785978 -0.35348201 0.83391386
0.23052651 -0.3509458 0.83081251
0.22884713 -0.34671545 0.83589768
0.23083034 -0.34769794 0.83320463
0.22828516 -0.33343565 0.83239067
0.22721942 -0.32543179 0.83230007
0.22666803 -0.31418431 0.83401263
0.22691165 -0.30514628 0.83459383
0.22637518 -0.29394177 0.83462507
0.22735524 -0.28579664 0.83456105
0.22659466 -0.27549437 0.83525014
0.22629362 -0.26485333 0.83631253
0.22505857 -0.25573686 0.83509624
0.22566672 -0.24205118 0.83156252
0.22694226 -0.20337927 0.8341912
0.20640977 0.075790033 0.83660001
0.22506262 -0.47062889 0.84731251
0.22587456 -0.46558991 0.84621441
0.22514057 -0.45431736 0.84340912
0.22628954 -0.44610459 0.84275001
0.2257736 -0.43522948 0.84514076
0.22674924 -0.42525592 0.84777784
0.22673525 -0.41399843 0.84800011
0.22614384 -0.40497577 0.84790289
0.22650307 -0.39500567 0.8471368
0.2260126 -0.38455543 0.84450841
0.22588043 -0.37531278 0.84446794
0.22604202 -0.36483756 0.84303027
0.22708727 -0.35433885 0.84382313
0.2290262 -0.34602198 0.84324998
0.22909854 -0.33541706 0.8430683
0.22835855 -0.32407975 0.84317505
0.22753674 -0.31502205 0.84715283
0.22773145 -0.30530965 0.84563237
0.22588629 -0.29573122 0.8461042
0.2275613 -0.28571159 0.84634626
0.22678295 -0.26393598 0.84471428
0.22607692 -0.25476199 0.84194446
0.20524532 0.075869471 0.84250003
0.22368145 -0.46425104 0.85754168
0.22370549 -0.45453674 0.85475469
0.22421286 -0.44759059 0.8556177
0.22517414 -0.43386361 0.85694265
0.22405808 -0.42474836 0.85612977
0.22334728 -0.4153465 0.85427535
0.22476923 -0.40716538 0.8529079
0.22329284 -0.3928026 0.85804641
0.22322282 -0.37481409 0.85604596
0.22628385 -0.36521277 0.85699272
0.22744642 -0.35429984 0.85520196
0.22524862 -0.3142857 0.85601479
0.22579028 -0.29520395 0.85273343
0.22431058 -0.48101056 0.8659445
0.22391164 -0.47528949 0.86311263
0.22468071 -0.46988487 0.86012506
0.22354655 -0.44482115 0.86305118
0.22288507 -0.43751711 0.86100018
0.2236695 -0.4050765 0.86260712
0.22400156 -0.39600271 0.86026931
0.22411345 -0.35496631 0.86461604
0.22525498 -0.34505612 0.86707431
0.22445431 -0.33540469 0.86594397
0.20906779 0.07596305 0.86300004
0.063031062 0.66773146 1.5581669
0.062915109 0.6749264 1.5553001
0.062426601 0.65983951 1.5695001
0.062292766 0.66372782 1.566146
0.062020883 0.6585418 1.5727501
0.060867578 0.65960568 1.5842501
0.06421271 0.66198051 1.5873752
0.063951239 0.65817755 1.596925
0.063312612 0.66057318 1.5917501
0.06468235 0.65349966 1.6049724
0.070228517 0.65398186 1.6020001
0.065269023 0.64776015 1.613521
0.070696123 0.64741844 1.6126667
0.067340046 0.65101123 1.6107501
0.070623055 0.65220261 1.6110001
0.084299713 -0.33456349 1.6222501
0.065210834 0.6382134 1.6395
0.064591944 0.64508486 1.6337649
0.063786946 0.65056193 1.6315001
0.064151973 0.6370458 1.6479688
0.061762728 0.64349365 1.6437812
0.063284464 0.63288081 1.6524545
0.084092639 -0.35204887 1.6615834
0.064924031 0.62668002 1.6684319
0.063998148 0.63150072 1.6657084
0.089468956 -0.36007097 1.6780001
0.087196276 -0.35779905 1.6780001
0.08377865 -0.36253119 1.6916001
0.084240735 -0.36839259 1.7024584
0.08629743 -0.37529957 1.7143501
0.032970898 0.75823736 1.7555001
0.0329055 0.76028603 1.7520001
0.02952202 0.75887555 1.7625
0.034364939 0.7574631 1.7659644
0.02948573 0.76390249 1.7603334
0.033470541 0.76574486 1.7609167
0.039430745 0.64907002 1.7787501
0.037334163 0.65574217 1.7745419
0.036921542 0.66533601 1.7739586
0.037669718 0.67450035 1.7768573
0.035077967 0.74889749 1.7779001
0.0292488 0.75726604 1.77495
0.035559829 0.75390095 1.7744642
0.027314514 0.76269913 1.7741667
0.034821663 0.46885437 1.7895001
0.039513871 0.64802498 1.7825
0.036276184 0.65251583 1.7815833
0.032353837 0.66541004 1.7870626
0.033110861 0.67571372 1.7844583
0.0368798 0.68438011 1.7850001
0.029965898 0.70852077 1.789
0.029967992 0.71462643 1.7891251
0.033430032 0.71411437 1.7891428
0.036452454 0.74752635 1.7846431
0.02896896 0.75527775 1.7873001
0.035899803 0.75085568 1.783125
0.026289312 0.76300263 1.7861251
0.039689366 0.47636732 1.7904167
0.038738582 0.48649719 1.7945716
0.044616252 0.48568749 1.7934999
0.037583232 0.49618915 1.7951592
0.043831415 0.49526978 1.7944999
0.037338704 0.50525266 1.7940003
0.043394558 0.50503272 1.7932189
0.036941878 0.51494074 1.792923
0.04336353 0.51437694 1.7919375
0.036146633 0.52503431 1.7951875
0.043245904 0.52424067 1.7942501
0.037450131 0.53233534 1.7993335
0.039813139 0.58849341 1.7960001
0.042167723 0.58498287 1.7926875
0.037816569 0.59559363 1.79575
0.042194184 0.59506238 1.7938125
0.036394082 0.60556966 1.7941668
0.036915734 0.61497748 1.7916926
0.037906248 0.62240678 1.7921251
0.039896265 0.64942271 1.7997501
0.036924932 0.65394443 1.7974503
0.027706461 0.66765189 1.7996252
0.031076271 0.66409558 1.7972502
0.026893293 0.6721034 1.7995834
0.030110367 0.6742112 1.7976251
0.031307518 0.68473369 1.7965001
0.027708385 0.70790476 1.7997501
0.034980103 0.70604068 1.7976667
0.027650652 0.71311229 1.796
0.038017806 0.71457583 1.797375
0.033749323 0.72263908 1.7970002
0.027696839 0.75754213 1.799
0.030141775 0.7540983 1.7995001
0.025250917 0.76415974 1.7983335
0.03799529 0.78432018 1.7961875
0.067880645 -0.7058903 1.8093057
0.068277523 -0.69923931 1.8090001
0.036301814 0.47724113 1.802875
0.035816975 0.48473603 1.8048214
0.035057604 0.49276453 1.8016251
0.032758925 0.51450056 1.8094376
0.03381376 0.53751236 1.807639
0.042957969 0.5346505 1.8055
0.027151315 0.54605281 1.8090359
0.033759072 0.54584378 1.808956
0.040809553 0.54475021 1.809357
0.027034095 0.55642241 1.8090001
0.033972587 0.55596107 1.8088282
0.027844058 0.56567383 1.8085626
0.034615029 0.56571412 1.8069583
0.041654389 0.56269217 1.8055416
0.027334804 0.57482225 1.8073002
0.035206873 0.57493508 1.8037502
0.027839251 0.58271515 1.8082502
0.03470955 0.5848344 1.8027127
0.027823856 0.59747857 1.80725
0.032238837 0.59495723 1.8033128
0.027772537 0.60452032 1.8039168
0.030659642 0.60413104 1.8013
0.027841173 0.61213666 1.8083751
0.031015789 0.61604214 1.8030834
0.032970745 0.62617832 1.8061112
0.034086563 0.63498831 1.8067813
0.037526432 0.6449734 1.8030385
0.026558325 0.65724349 1.8045001
0.032618336 0.65549284 1.8017
0.030162713 0.66197407 1.8007501
0.027816156 0.7265591 1.8067501
0.036096789 0.72559309 1.8049501
0.034459855 0.73296565 1.8086751
0.036356132 0.74922121 1.8053751
0.037143227 0.75116467 1.8041668
0.036970843 0.79641944 1.8056875
0.068061471 -0.71433848 1.8141667
0.066341177 -0.70254481 1.8163
0.059957922 -0.55218905 1.81675
0.064889766 -0.55350816 1.8170418
0.059960674 -0.54729408 1.8168335
0.065238953 -0.54622161 1.8176333
0.065569803 -0.45278263 1.8188437
0.059943486 -0.44508296 1.8163126
0.059966177 -0.43786979 1.8170002
0.065415442 -0.43605429 1.8179834
0.052641179 0.0074170218 1.8190002
0.052591771 0.014791165 1.8172919
0.052573055 0.024625337 1.8166457
0.047694262 0.034493782 1.8182502
0.052592773 0.034476899 1.8173336
0.047687706 0.044335134 1.8180001
0.052598834 0.04432404 1.817542
0.047672953 0.054163747 1.8174376
0.052581925 0.054149505 1.8169584
0.047640163 0.063962691 1.8161875
0.052552525 0.063953854 1.8159376
0.047619507 0.074995637 1.8153999
0.052529197 0.074984536 1.8151337
0.047617212 0.086052775 1.8153126
0.052521143 0.086031131 1.8148543
0.047633607 0.095916733 1.8159375
0.052555591 0.095922738 1.8160416
0.046788514 0.10651328 1.8149585
0.052557275 0.10575839 1.8160626
0.037854142 0.11822736 1.8187501
0.044177547 0.11580314 1.8154836
0.052518576 0.11550825 1.8147293
0.035878409 0.12609206 1.8185251
0.043928813 0.12538101 1.8153594
0.052479517 0.1252465 1.8134166
0.043945886 0.13526648 1.8160782
0.052472711 0.13505079 1.8131872
0.041531801 0.14156282 1.8180001
0.032883391 0.4967787 1.8163126
0.032790605 0.50518835 1.8111876
0.030367902 0.52901459 1.8130001
0.030334402 0.53333503 1.8110001
0.025462121 0.57945347 1.813375
0.027088061 0.58699852 1.8126669
0.027906604 0.59516662 1.8126251
0.027970111 0.61866045 1.81675
0.027989358 0.62524092 1.8180001
0.025460366 0.67884433 1.8132501
0.027950868 0.68460453 1.8155
0.026311709 0.71491861 1.8155001
0.025489619 0.72386599 1.8153335
0.034618307 0.73851025 1.8105626
0.035034016 0.7454893 1.8119546
0.028008603 0.75991154 1.8192501
0.03201567 0.75434113 1.8137501
0.026757702 0.76308215 1.8180001
0.073850155 -0.83172643 1.8256252
0.067765988 -0.82549632 1.8282501
0.073832884 -0.82535625 1.8252034
0.07266137 -0.81867236 1.8268334
0.070126899 -0.72281939 1.82525
0.066678174 -0.69527465 1.8231364
0.071338654 -0.69539458 1.8246251
0.0658402 -0.63177067 1.826375
0.065202937 -0.62457806 1.8258334
0.066534594 -0.61886853 1.8284376
0.065164976 -0.56205815 1.8248334
0.057900839 -0.55234897 1.8295001
0.065887786 -0.55708599 1.8220419
0.057216182 -0.54616034 1.8274376
0.065049596 -0.54279619 1.82155
0.064573526 -0.53520805 1.8244709
0.065253504 -0.52445471 1.8272499
0.065810181 -0.51776212 1.8289502
0.063933112 -0.46394795 1.8248751
0.06433104 -0.4566572 1.8211429
0.06532374 -0.43102551 1.8205626
0.064073071 -0.40479401 1.8250002
0.061692059 -0.39644009 1.8244501
0.056658287 -0.37150046 1.829375
0.056704592 -0.36517745 1.8251787
0.056696977 -0.35532972 1.8261945
0.063769482 -0.354958 1.8257763
0.057805896 -0.30414605 1.8265001
0.057883039 -0.29464588 1.8289376
0.057908751 -0.2811524 1.8297501
0.057059005 -0.27484676 1.8290001
0.057877105 -0.2649036 1.8287501
0.057908751 -0.25885606 1.8297501
0.056797992 -0.18365365 1.8259001
0.054529924 -0.17490058 1.8233929
0.047995917 -0.16223864 1.8297501
0.053991944 -0.16535619 1.8231565
0.054295402 -0.15588829 1.8250167
0.055295631 -0.14578132 1.8253127
0.055270728 -0.13583457 1.8244791
0.053992718 -0.12585609 1.8230627
0.053962987 -0.11591638 1.8220316
0.053945791 -0.10601535 1.8214535
0.053933136 -0.096130058 1.8210781
0.054347947 -0.084767118 1.8212084
0.053955093 -0.073967837 1.8217815
0.054052271 -0.064215645 1.8250625
0.047984444 -0.054459855 1.8293126
0.054142438 -0.054423753 1.8281095
0.047946736 -0.044519387 1.827875
0.054114021 -0.044501428 1.8271407
0.04782214 -0.034530275 1.8231251
0.053966559 -0.034512226 1.8221567
0.047868043 -0.025909886 1.8248751
0.05390849 -0.024615524 1.8202029
0.047933619 -0.016054526 1.8273751
0.053944457 -0.014766849 1.8214222
0.047920506 -0.0061552133 1.8268751
0.053980503 -0.0049064625 1.8226252
0.04790739 0.0049743238 1.826375
0.054734845 0.003486393 1.8229752
0.04641182 0.015810728 1.8283751
0.046537239 0.023895439 1.8281072
0.045517713 0.068156682 1.8297501
0.036833748 0.078044832 1.8292501
0.043259799 0.075045444 1.8285999
0.035572603 0.084182926 1.828104
0.042976607 0.084136307 1.8270832
0.042953659 0.093981095 1.8261043
0.042547073 0.10447153 1.824981
0.040411662 0.11233339 1.8230001
0.032488223 0.48667687 1.82175
0.031132977 0.49583793 1.8218751
0.030533308 0.5059815 1.822875
0.030545872 0.51359707 1.8236251
0.030563319 0.52418369 1.8246666
0.025649924 0.54786658 1.82675
0.023175778 0.5515765 1.82675
0.025692048 0.6156553 1.8297501
0.025660455 0.62726986 1.8275001
0.027071804 0.63545859 1.8226001
0.02641901 0.64407039 1.8229166
0.03150345 0.64656103 1.8219001
0.026477808 0.65446967 1.8218185
0.031442344 0.65495038 1.8219062
0.025692048 0.7097953 1.8297501
0.026256204 0.73612839 1.8259375
0.027648512 0.74428284 1.8280503
0.030580068 0.74529105 1.8256668
0.03064009 0.75294381 1.8292501
0.026893543 0.83745247 1.8272084
0.026152205 0.8429383 1.8273001
0.024436915 0.85785103 1.8285
0.068136647 -0.8325004 1.83825
0.067926608 -0.82248998 1.8325834
0.068085685 -0.81819808 1.8368752
0.073342867 -0.81693053 1.836125
0.063071311 -0.71703619 1.8357501
0.063045546 -0.70680505 1.835
0.065676734 -0.69260687 1.8390836
0.066846468 -0.66280639 1.8370001
0.066919468 -0.65503448 1.8341429
0.067937419 -0.64518774 1.832875
0.06495291 -0.63695383 1.8327501
0.058077544 -0.62235898 1.8350834
0.060442656 -0.6248439 1.8314377
0.064795844 -0.61712134 1.8342857
0.066872388 -0.58468992 1.837719
0.065530144 -0.57419562 1.8350002
0.056880884 -0.56444687 1.836625
0.063803107 -0.5670473 1.8329722
0.056312829 -0.55628484 1.8315835
0.060675737 -0.53556627 1.8385
0.060708739 -0.52174526 1.8395001
0.063404605 -0.51386398 1.8323865
0.05673743 -0.50381958 1.8377144
0.064070299 -0.50572544 1.8350735
0.056971535 -0.49808475 1.8395001
0.062355358 -0.4975566 1.8390836
0.058217324 -0.47193384 1.8395001
0.063076019 -0.47267118 1.8359169
0.05704901 -0.46436197 1.8362857
0.058019526 -0.45419803 1.8332502
0.057028651 -0.44455045 1.8334001
0.057173558 -0.43530464 1.8360313
0.060535472 -0.43085155 1.8342501
0.05722069 -0.42760152 1.8395001
0.062389474 -0.42466408 1.836643
0.064151235 -0.41568574 1.8362143
0.058209416 -0.40214324 1.8392501
0.060659233 -0.406847 1.8380001
0.057024334 -0.39457935 1.8355
0.061100263 -0.39261681 1.8325626
0.056771126 -0.38465244 1.8330314
0.062727466 -0.38416436 1.8323182
0.056469668 -0.37610665 1.8313
0.062283672 -0.37738243 1.8308752
0.05434145 -0.35150048 1.8348751
0.056999665 -0.34578991 1.8347143
0.058185678 -0.336429 1.8385
0.058109194 -0.31444618 1.8360834
0.055718336 -0.30253398 1.8392501
0.055521421 -0.2952652 1.8327501
0.055475909 -0.28511003 1.8313
0.053832892 -0.27523968 1.8316251
0.054307334 -0.26561999 1.8336877
0.054875392 -0.25524506 1.8319792
0.055501144 -0.24554716 1.8321248
0.056360498 -0.23506856 1.8331667
0.055741683 -0.22542433 1.8325909
0.054219332 -0.21561252 1.8306874
0.048130356 -0.20430383 1.834875
0.054290555 -0.20596659 1.8330936
0.04822544 -0.19786352 1.8385001
0.054168414 -0.19533044 1.8356317
0.053115293 -0.18573292 1.835469
0.048133634 -0.17388734 1.835
0.050563782 -0.17741744 1.8330001
0.048004661 -0.16722398 1.8300834
0.048041828 -0.15495257 1.8315003
0.050481025 -0.15234999 1.83
0.048081167 -0.14391372 1.8330002
0.05051551 -0.14501558 1.83125
0.048059858 -0.13392712 1.8321877
0.050499421 -0.13505556 1.8306669
0.047590755 -0.12383071 1.8333
0.048040181 -0.11403507 1.8314376
0.048066415 -0.10417211 1.8324376
0.047329452 -0.094017595 1.8360001
0.050522402 -0.0904814 1.8315001
0.047310453 -0.084039919 1.83525
0.050487924 -0.085463561 1.8302501
0.047305945 -0.074092798 1.8350419
0.047025062 -0.063978024 1.8333571
0.04568563 -0.054673366 1.8365002
0.045638986 -0.044683192 1.8346251
0.045615666 -0.034729093 1.8336877
0.046388637 -0.024356306 1.8315419
0.046370957 -0.014431129 1.8308334
0.046397094 -0.0045174886 1.8318752
0.044835161 0.0054130629 1.8356668
0.043922532 0.012018873 1.8321667
0.044295121 0.027290555 1.8304377
0.044343643 0.034763906 1.8324375
0.043625478 0.04521114 1.8335501
0.037587516 0.056576163 1.8358127
0.043136973 0.054655164 1.8339165
0.036933087 0.064595513 1.8341876
0.042869929 0.064186178 1.8321592
0.035385739 0.073666222 1.83125
0.041814424 0.070658177 1.8303751
0.028227989 0.4865886 1.8335
0.030711276 0.4865886 1.8335
0.028220292 0.49017859 1.8330001
0.030686151 0.49239022 1.832
0.028293421 0.5038898 1.8377501
0.03069034 0.51974708 1.8322501
0.030686153 0.52463698 1.8320001
0.028270328 0.5382849 1.8362501
0.026618281 0.54503852 1.8366667
0.023302646 0.55086571 1.83675
0.02576752 0.59758615 1.8351251
0.02572364 0.6064893 1.832
0.024536807 0.64261585 1.8360001
0.027023712 0.75577432 1.8361251
0.030654747 0.75825953 1.8301251
0.026647799 0.76347512 1.8387084
0.02582193 0.82044899 1.8390001
0.025091918 0.83617812 1.8311876
0.024922093 0.84650201 1.8343334
0.02634404 0.85453218 1.8320001
0.026733439 0.86698103 1.8331501
0.023751879 0.87486494 1.8330252
0.023267018 0.88275295 1.8339443
0.075811453 -0.89466029 1.84325
0.065959401 -0.83146167 1.8470001
0.074463092 -0.83861721 1.8407501
0.063638836 -0.82427102 1.8456593
0.065501131 -0.81458557 1.8449423
0.073061541 -0.81275642 1.8431501
0.064938918 -0.80816597 1.8484643
0.072900452 -0.80901337 1.8485626
0.063286044 -0.71448886 1.8420001
0.063311808 -0.70978987 1.8427501
0.06640473 -0.68694454 1.8439445
0.064076982 -0.66511488 1.8468751
0.064094499 -0.65592027 1.847375
0.065144174 -0.64577472 1.8416251
0.057697698 -0.61312813 1.8428125
0.064443067 -0.6126765 1.8421732
0.057568874 -0.60751468 1.8453335
0.064639777 -0.60450554 1.8450471
0.065184921 -0.59533781 1.8444318
0.062433559 -0.58466923 1.8463001
0.058339965 -0.57400882 1.8433751
0.062071647 -0.57763427 1.8430002
0.055772707 -0.56579328 1.8410001
0.057080466 -0.54519343 1.8430001
0.060733493 -0.5344159 1.8402501
0.060744494 -0.52703673 1.8405834
0.057237104 -0.51416588 1.8480625
0.054244179 -0.50764585 1.8455834
0.055118036 -0.49635178 1.84
0.058486335 -0.48162082 1.848
0.064574406 -0.48036659 1.8431876
0.056872882 -0.47618932 1.8444
0.064546086 -0.47681835 1.8423333
0.055809218 -0.46515039 1.8422501
0.055911459 -0.45351452 1.8456252
0.055839512 -0.44544381 1.84325
0.055756204 -0.4397954 1.8405001
0.05581728 -0.42283636 1.842625
0.060725238 -0.42223716 1.84
0.056004796 -0.41506177 1.8429109
0.060737617 -0.41609371 1.8403752
0.055362888 -0.40495023 1.8441
0.060733493 -0.40983665 1.8402501
0.053491339 -0.39537898 1.8483751
0.053473249 -0.38523889 1.8477501
0.053434659 -0.37537551 1.8464168
0.053418986 -0.36360502 1.845875
0.053444311 -0.3537733 1.84675
0.055044811 -0.34420812 1.8445835
0.055091869 -0.33340645 1.8433502
0.054608487 -0.32451469 1.8438749
0.053614698 -0.31434536 1.8447953
0.052853625 -0.30500126 1.8436248
0.052240215 -0.29374048 1.8421072
0.050879288 -0.28465667 1.8444375
0.050879288 -0.27466929 1.8444375
0.050827567 -0.26441181 1.8425627
0.050791357 -0.25300336 1.8412501
0.048369709 -0.24089871 1.8440001
0.051320326 -0.24367718 1.84235
0.048366431 -0.23339239 1.8438752
0.051874954 -0.2349097 1.841786
0.048415612 -0.22363444 1.8457501
0.050814349 -0.22568381 1.8420835
0.048336919 -0.21578571 1.8427501
0.04601524 -0.20157872 1.84975
0.047329642 -0.19429925 1.8424501
0.047801234 -0.18520682 1.84135
0.050763775 -0.18310235 1.8402501
0.048291016 -0.17819177 1.8410001
0.045934394 -0.16372079 1.8465002
0.045996584 -0.1414146 1.8490001
0.045819342 -0.13338983 1.8418751
0.045778915 -0.12330395 1.84025
0.045788243 -0.11460675 1.840625
0.045783062 -0.10504258 1.8404168
0.043498185 -0.041282881 1.8492501
0.043465845 -0.033747304 1.8478751
0.043415859 -0.023712199 1.8457501
0.043389395 -0.013707202 1.844625
0.043348234 -0.0037146546 1.8428751
0.040993564 0.03883779 1.8492501
0.038468134 0.047575422 1.8482502
0.040982481 0.043833483 1.8487501
0.038343254 0.051162247 1.8422501
0.033389185 0.068696797 1.8442501
0.028408889 0.51968443 1.8452501
0.02847432 0.52464032 1.8495001
0.028405041 0.5371027 1.845
0.025850013 0.62691838 1.8410001
0.025844747 0.6342665 1.840625
0.023351809 0.72772038 1.840625
0.023361854 0.73426694 1.8414167
0.023420002 0.74234354 1.8460001
0.020953784 0.82991725 1.8490001
0.017470628 0.83645052 1.8447814
0.02372265 0.83536947 1.8451564
0.018374667 0.84151053 1.8415
0.028405039 0.88807422 1.845
0.018456984 0.89036059 1.84975
0.068674102 -0.84157562 1.8527501
0.073692821 -0.84826493 1.8527502
0.065633059 -0.80332744 1.8519001
0.073744148 -0.80518359 1.8540229
0.058858205 -0.79439551 1.85975
0.065444842 -0.79491508 1.8560696
0.072468191 -0.79520988 1.8570834
0.058826558 -0.78641808 1.8587501
0.065124884 -0.7852124 1.858875
0.072282411 -0.78841406 1.8594999
0.058830515 -0.77640432 1.858875
0.065137185 -0.77528912 1.8592186
0.058850296 -0.76785326 1.8595001
0.065145642 -0.76784045 1.8594688
0.068919666 -0.74766207 1.859375
0.061104771 -0.72318739 1.8515
0.056773551 -0.68186551 1.8533125
0.064556308 -0.68343043 1.8524547
0.056704171 -0.67456388 1.8533614
0.06455446 -0.6753363 1.8528574
0.058668315 -0.66884929 1.8537501
0.061143275 -0.66595048 1.8526667
0.063586667 -0.65147913 1.8507501
0.062034737 -0.64478838 1.8543334
0.058657765 -0.63610727 1.8534168
0.057914902 -0.60446054 1.8564167
0.06123266 -0.59532976 1.8553751
0.058842383 -0.58524513 1.8592501
0.06131104 -0.58980358 1.8577501
0.05381329 -0.55259442 1.8595001
0.056316644 -0.54489541 1.8590001
0.058725286 -0.53634369 1.8555502
0.058678865 -0.52588266 1.8540834
0.057365656 -0.51909113 1.8522501
0.05122583 -0.50156623 1.8570001
0.048717268 -0.49911916 1.8572501
0.055295348 -0.49618307 1.8585001
0.062616758 -0.49501863 1.8591666
0.06567701 -0.48850876 1.8592499
0.053587198 -0.47380543 1.8516876
0.053679444 -0.4670881 1.8548751
0.053777117 -0.44403818 1.8582501
0.053652313 -0.43422258 1.8539376
0.052809801 -0.4245688 1.8538333
0.051268928 -0.41517371 1.8585626
0.051187895 -0.40321097 1.8556252
0.051263757 -0.39374298 1.8583751
0.05299468 -0.34366757 1.8529377
0.048723824 -0.33571514 1.8575001
0.051988944 -0.33765304 1.8543334
0.048612345 -0.3299287 1.8532501
0.048592672 -0.28464907 1.8525002
0.048579559 -0.27453956 1.8520001
0.048710711 -0.26522404 1.8570001
0.04874678 -0.25535777 1.8583751
0.048743501 -0.24779223 1.8582501
0.046086758 -0.19436547 1.8526251
0.04617694 -0.18469331 1.85625
0.046214253 -0.17729773 1.8577501
0.046046339 -0.15409791 1.8510001
0.046040118 -0.14656004 1.8507501
0.043739285 -0.046546999 1.8595001
0.036084056 0.052752215 1.8543751
0.033579282 0.064065479 1.85475
0.028489716 0.50989121 1.8505001
0.02848202 0.514763 1.8500001
0.028489716 0.5274294 1.8505001
0.028537186 0.53332478 1.8535835
0.023505637 0.64847916 1.8527501
0.02101139 0.7342965 1.8540834
0.025981404 0.8280105 1.8503333
0.027485153 0.83252746 1.8503501
0.069211565 -1.0049069 1.8672501
0.059079748 -0.88079196 1.8667501
0.064144976 -0.88293153 1.867
0.064196512 -0.87908781 1.8685001
0.06142655 -0.80259633 1.86125
0.05903491 -0.7639451 1.8653334
0.064475343 -0.762842 1.8620253
0.065282837 -0.75546604 1.8654078
0.06165757 -0.7474364 1.8682501
0.059150957 -0.72749239 1.8690001
0.061674073 -0.72359979 1.8687501
0.061653443 -0.71829921 1.8681251
0.061550312 -0.66154552 1.8650001
0.061586063 -0.65561277 1.8660835
0.061393548 -0.64852655 1.8602501
0.059111394 -0.60182881 1.8677502
0.048868094 -0.49057484 1.863
0.053500272 -0.49188519 1.8611431
0.048900884 -0.4883799 1.8642501
0.054356501 -0.48585099 1.8624774
0.061385296 -0.48726654 1.8600001
0.051418923 -0.47695759 1.8640001
0.053960402 -0.46321908 1.8645835
0.054001402 -0.45599556 1.8660002
0.053863935 -0.44979373 1.86125
0.049034227 -0.43656161 1.8693334
0.051520646 -0.43491548 1.8676876
0.049002528 -0.42616171 1.8681251
0.051336169 -0.42579672 1.8610001
0.049032036 -0.4137643 1.8692501
0.051453408 -0.40529671 1.8652501
0.051517773 -0.36535379 1.8675834
0.051387891 -0.35560435 1.862875
0.051329274 -0.34638059 1.8607502
0.049012367 -0.29469606 1.8685001
0.043827496 -0.061777227 1.8632501
0.043780454 -0.054151878 1.8612502
0.041442458 0.019013574 1.8695
0.04141752 0.026590619 1.8683751
0.041403666 0.03416869 1.86775
0.026155408 0.54731405 1.8627501
0.023721315 0.64936632 1.8697501
0.069610029 -1.0208631 1.8780001
0.068304427 -1.0152709 1.8770626
0.072124764 -1.0153724 1.8772501
0.065152295 -0.8839938 1.8717502
0.072047926 -0.86195177 1.8752501
0.069475666 -0.85774374 1.8743751
0.071865425 -0.85723585 1.8705001
0.057943594 -0.67249453 1.8708751
0.059446346 -0.6675458 1.8783334
0.058608472 -0.65240365 1.8786669
0.058107443 -0.64775133 1.87625
0.059309196 -0.60003722 1.8740001
0.059272274 -0.59459203 1.8728334
0.056733187 -0.58695906 1.87275
0.054207597 -0.5528394 1.8731251
0.055865321 -0.54363626 1.8720001
0.056735713 -0.53627104 1.8728334
0.054290794 -0.52447796 1.876
0.051610295 -0.44580299 1.8709375
0.051601678 -0.3938061 1.870625
0.051632714 -0.38390675 1.8717502
0.051625814 -0.37498745 1.8715001
0.04921893 -0.344208 1.8763751
0.044045072 -0.16095866 1.8725001
0.041453544 0.013954929 1.8700001
0.026387092 0.53689575 1.87925
0.026366906 0.54411238 1.8778126
0.023753032 0.87077183 1.8722501
0.059685022 -0.72767735 1.885875
0.058663294 -0.66149765 1.8804169
0.057606511 -0.65624475 1.8805625
0.057248186 -0.6025216 1.8897501
0.057195172 -0.59557343 1.888
0.054457199 -0.5515632 1.8817501
0.054428257 -0.54617727 1.8807501
0.052049935 -0.47259188 1.8868752
0.052074075 -0.46897727 1.8877501
0.049468126 -0.36382899 1.8858751
0.049500912 -0.32573897 1.887125
0.049395993 -0.30465585 1.8831251
0.046854824 -0.21545725 1.8835001
0.044303816 -0.13640347 1.8835001
0.044283234 -0.12614343 1.8826251
0.044327341 -0.11606256 1.8845
0.04435968 -0.10593431 1.885875
0.044392027 -0.095790163 1.8872502
0.044442009 -0.085665792 1.8893751
0.04442437 -0.075404473 1.8886251
0.041697387 0.0089434991 1.881
0.039259039 0.042168729 1.8862501
0.026397623 0.53329211 1.8800001
0.021373084 0.71118754 1.886
0.072388925 -0.89276534 1.8936787
0.066368461 -0.88869655 1.8943751
0.057299308 -0.6760447 1.8914375
0.056473672 -0.66742611 1.8924168
0.054818943 -0.54368752 1.8942502
0.054806888 -0.53715628 1.8938335
0.052159127 -0.46462321 1.8908334
0.049664859 -0.38577825 1.8933752
0.049704205 -0.37582207 1.894875
0.049822241 -0.36385703 1.8993751
0.047156446 -0.24507622 1.8956251
0.047178216 -0.23491821 1.8965001
0.047196873 -0.22473639 1.8972501
0.044662528 -0.15036114 1.8987501
0.044462591 -0.14456947 1.8902501
0.042090867 -0.024393406 1.8987501
0.042046532 -0.014094701 1.8967501
0.042004965 -0.003819098 1.894875
0.041974485 0.0038755673 1.8935001
0.067932472 -0.88466328 1.9022501
0.067932464 -0.87178659 1.9022501
0.070545942 -0.87868714 1.9032501
0.055072166 -0.68404263 1.9030001
0.05501429 -0.67817599 1.9010001
0.049851753 -0.37436503 1.9005001
0.047389667 -0.28497726 1.9050001
0.047380336 -0.27718475 1.9046252
0.04742698 -0.25422621 1.9065001
0.044815421 -0.15603505 1.9052501
0.042201702 -0.042499546 1.9037501
0.042165682 -0.034738373 1.9021251
0.024212932 0.10209796 1.9085001
0.018988319 0.71502149 1.9030001
0.055470087 -0.68119961 1.9167501
0.050127178 -0.492865 1.9110001
0.050173081 -0.48554671 1.9127501
0.050114062 -0.38926801 1.9105
0.04757002 -0.27052739 1.91225
0.047576241 -0.26279455 1.9125001
0.042534217 -0.053225886 1.91875
0.042506509 -0.047998857 1.9175001
0.05298439 -0.54999173 1.9207501
0.047943167 -0.30396199 1.9272501
0.04262843 -0.065060258 1.9230001
0.042578556 -0.058482524 1.9207501
0.053336099 -0.55102468 1.9335001
0.053280931 -0.54783964 1.9315001
0.050645236 -0.48227397 1.9307501
0.050664909 -0.47723103 1.9315001
0.0090640113 0.10632417 1.9875001
0.02261116 0.10403733 1.9952501
