# .PCD v0.7 - Point Cloud Data file format
VERSION 0.7
FIELDS x y z normal_x normal_y normal_z curvature
SIZE 4 4 4 4 4 4 4
TYPE F F F F F F F
COUNT 1 1 1 1 1 1 1
WIDTH 590
HEIGHT 1
VIEWPOINT 0 0 0 1 0 0 0
POINTS 590
DATA ascii
0.22316997 -0.21619517 0.8506667 0.50402546 -0.059684116 -0.40921485 0.65196675
0.226355 -0.20473437 0.85476315 0.50210655 -0.073385641 -0.4081943 0.65124422
-0.045911953 -0.19454104 0.85531253 0.53363585 -0.055227906 -0.49230623 0.72813654
0.22607714 -0.19612895 0.85507691 0.49878693 0.067450583 -0.46213126 0.68330318
-0.04574756 -0.18749587 0.8522501 0.5336566 -0.046722982 -0.49449 0.72903544
0.2224035 -0.18518291 0.85758334 0.50569379 0.029932838 -0.4595148 0.68394154
0.22341439 -0.17761959 0.85750008 0.50921249 -0.026524294 -0.45280898 0.68193614
-0.045769926 -0.1517965 0.85266668 0.53301746 -0.0062882826 -0.48809355 0.72276032
0.22228879 -0.15491907 0.85318756 0.50661135 0.018141773 -0.46185717 0.68578148
-0.045980167 -0.14901461 0.85658336 0.53260028 0.0019548293 -0.48542407 0.72062713
0.21792197 -0.14091031 0.85931253 0.50864547 0.011237971 -0.49001762 0.70637369
0.22171608 -0.143957 0.85663342 0.50891715 -0.0023271255 -0.47572964 0.69664967
-0.047156371 -0.13224429 0.85687506 0.53179806 0.0095006023 -0.48060274 0.71685314
0.21746965 -0.13550167 0.8567701 0.50940585 0.0028787889 -0.49157441 0.70791805
0.22289859 -0.13477807 0.85653991 0.50946021 -0.058343209 -0.48213097 0.70384938
0.21823005 -0.12491298 0.85725015 0.50870401 -0.074065208 -0.47814471 0.70205969
0.22308414 -0.12477533 0.85598058 0.507698 -0.07631965 -0.47727934 0.70098323
-0.048287317 -0.11766464 0.85635006 0.53229743 0.0032931846 -0.48105288 0.71747005
0.21954262 -0.11338051 0.85750008 0.50820565 -0.0484952 -0.4604494 0.68748707
0.22267687 -0.11506964 0.85577232 0.50747919 -0.048576117 -0.45596114 0.68395561
0.21891025 -0.1042487 0.8563816 0.50604743 0.011387236 -0.46376276 0.68650532
0.22194715 -0.10508632 0.85429543 0.50410622 0.015003249 -0.45095599 0.67654228
-0.049239285 -0.09466131 0.85275006 0.5323602 -0.039608359 -0.46832922 0.71014678
0.21777321 -0.095728002 0.85261959 0.50482047 -0.0032602511 -0.43904915 0.66904294
0.22125445 -0.098512925 0.85110712 0.50317335 0.0061082281 -0.43487626 0.66508502
0.21809304 -0.084246807 0.85447931 0.50696331 -0.024887979 -0.45423701 0.68114793
-0.044121441 -0.072142184 0.85267866 0.51970983 -0.13880564 -0.51089734 0.74187696
0.21883018 -0.074848324 0.85357994 0.49578857 -0.10208377 -0.40809458 0.65020657
0.22041479 -0.070590526 0.85487509 0.45365408 -0.22514588 -0.37462679 0.6299507
-0.042985853 -0.067287281 0.85089588 0.51963913 -0.13854879 -0.50320083 0.73649961
0.21943615 -0.067678086 0.85708338 0.47206748 -0.22037877 -0.47972336 0.70820123
0.22221598 -0.063697129 0.85398012 0.45801029 -0.24451658 -0.44370052 0.68295819
-0.042396337 -0.054941121 0.85450006 0.52978379 -0.071724631 -0.49925315 0.73148412
0.2253378 -0.055282865 0.85565364 0.47728741 -0.18876092 -0.43167078 0.67065161
0.2326064 -0.056425739 0.85350001 0.47636193 -0.18849513 -0.43126291 0.66965574
0.22553875 -0.045651514 0.85303855 0.49962896 -0.1108522 -0.52197009 0.73100621
0.22869577 -0.038258918 0.85337502 0.48535767 -0.16459957 -0.54698956 0.74957502
0.23547693 -0.033777423 0.85471261 0.44052142 -0.26991037 -0.55601317 0.75898707
0.071642786 -0.021402357 0.85500002 0.48346823 0.090772673 -0.61146075 0.78477097
0.24034381 -0.023159083 0.85575002 0.46213323 -0.15774 -0.6503197 0.81324333
0.069732033 -0.015009348 0.85287505 0.50124913 0.046959557 -0.5647456 0.75656688
0.23338966 -0.0167866 0.85575002 0.48031414 0.034065012 -0.63398421 0.79611433
0.37882698 -0.012077517 0.85050005 0.16505186 0.4111869 -0.62306875 0.76454657
0.38301581 -0.012155619 0.85600007 0.17338438 0.39597932 -0.65319258 0.78327662
0.48416376 -0.017960962 0.85650009 -0.050793473 0.48389184 -0.48667812 0.68817651
0.49343291 -0.018002903 0.85850006 -0.061501209 0.48529384 -0.48110929 0.68611854
0.51693046 -0.015667915 0.85793751 -0.095460966 0.48963526 -0.48121172 0.69312352
0.52963233 -0.015682755 0.85875005 -0.071954474 0.49423081 -0.47398823 0.68855381
-0.3964276 0.045924392 0.85426676 0.53126514 -0.091557652 -0.49398348 0.73119432
-0.39572704 0.055242978 0.8530398 0.50149506 -0.17894694 -0.48365006 0.71933073
-0.044632517 0.057758849 0.85300004 0.53246427 -0.04238008 -0.49134499 0.72576457
0.22273017 0.056559399 0.85377079 0.48785052 0.084492192 -0.52772403 0.72362262
-0.39384267 0.061729036 0.8531428 -0.30946708 0.37414789 -0.49005139 0.68986005
-0.38292861 0.065564483 0.8547501 -0.062929928 0.50480676 -0.48477364 0.70270586
-0.37706503 0.066572681 0.85495007 -0.012329493 0.51156998 -0.51771033 0.72792846
-0.36438313 0.065795392 0.85237503 0.043868426 0.51172692 -0.50574559 0.72081029
-0.34294841 0.067397498 0.85075003 0.050821502 0.50335103 -0.56014115 0.75478685
-0.044619434 0.061782412 0.85275006 0.53214812 -0.044316709 -0.47925705 0.71751857
0.21920502 0.066700943 0.85339302 0.42904437 0.23267043 -0.51180768 0.70722109
0.22037855 0.061723482 0.85587502 0.4645302 0.16116168 -0.51700169 0.71347892
0.21756692 0.073279187 0.85485011 0.42375693 0.24086337 -0.52447641 0.71600324
0.5186047 0.08789932 0.85975003 -0.035576008 0.48754731 -0.52016228 0.71381849
0.52250171 0.087771527 0.85850006 -0.022215338 0.48722175 -0.52770239 0.71857387
0.54402924 0.087030292 0.85125005 -0.046843424 0.49242157 -0.53666437 0.72985065
-0.031202585 -0.47489098 0.86502272 0.55694091 -0.010214915 -0.5019812 0.74984843
0.20860875 -0.46726626 0.86231256 0.4580597 -0.0083930064 -0.36429223 0.58531868
-0.032769848 -0.45311701 0.86516672 0.55360872 0.019634655 -0.48275161 0.73479062
0.209163 -0.45482334 0.86581248 0.44644642 -0.088291258 -0.33018887 0.56225836
0.21240714 -0.45428529 0.86423129 0.4530887 -0.092464991 -0.3543669 0.58259338
-0.033622436 -0.44957596 0.86700004 0.5530715 0.025553809 -0.47934952 0.7323367
0.20825221 -0.44503021 0.86273229 0.43173903 0.08012861 -0.31726184 0.54173267
-0.034801714 -0.43437842 0.86712503 0.55273116 0.024125982 -0.47971135 0.73226827
0.20594192 -0.43435079 0.86706257 0.47811279 -0.010932496 -0.43147063 0.64411044
-0.035880201 -0.42502007 0.86481249 0.55357021 0.013590267 -0.48444608 0.73573953
0.20728813 -0.42529586 0.86401278 0.48189422 -0.091586947 -0.50230807 0.7020852
-0.035924278 -0.4044444 0.86587501 0.55309045 -0.045902908 -0.49940458 0.74660641
0.20789683 -0.40239313 0.86394584 0.46761072 -0.072512254 -0.35585064 0.59207052
-0.035831969 -0.39345795 0.86365002 0.55098003 -0.045397941 -0.48167938 0.7332496
0.2090034 -0.39690068 0.86775011 0.47784445 -0.049786612 -0.38873288 0.61800265
0.21193926 -0.39527154 0.86334026 0.4620963 -0.090551421 -0.34404147 0.5831784
-0.036033191 -0.38861975 0.86850005 0.55060667 -0.031136854 -0.47770727 0.7296173
-0.036956441 -0.36436665 0.86259377 0.54484326 0.024011809 -0.49195957 0.73447597
-0.03776874 -0.35652664 0.86446881 0.54402488 0.02943375 -0.4974404 0.73775089
-0.039444771 -0.34584242 0.86592513 0.54694295 -0.0036991797 -0.48587406 0.73159677
-0.039197654 -0.33377746 0.86050004 0.54590714 -0.02962124 -0.49100986 0.73483515
0.23002331 -0.33960256 0.86050004 0.43452865 -0.025973901 -0.26331502 0.50874805
-0.039417826 -0.32587937 0.86533338 0.54478872 -0.029380497 -0.47429687 0.72292149
-0.039619014 -0.31970137 0.86975002 0.54427963 -0.029301103 -0.47432294 0.72255182
-0.040363114 -0.30057257 0.86050004 0.54057616 -0.0042164344 -0.4939419 0.73226976
-0.040640287 -0.29500487 0.86640912 0.5397771 -0.00032489561 -0.49413353 0.73179734
-0.041129522 -0.28460285 0.86685008 0.53773886 -0.015748721 -0.49390012 0.7303071
-0.041744024 -0.27594906 0.86496437 0.53684473 -0.020750906 -0.49512139 0.73060119
-0.040761817 -0.26530334 0.86900002 0.53581285 -0.02671415 -0.49635941 0.73087734
-0.041714378 -0.23228285 0.86435002 0.52796268 0.055680878 -0.4853985 0.71934462
-0.042304005 -0.22531866 0.86450005 0.52530968 0.070568673 -0.50119787 0.7294721
0.21522705 -0.22531621 0.86422193 0.45463738 -0.088670224 -0.26852667 0.53541023
0.22205265 -0.22372115 0.86207831 0.46451041 -0.1207684 -0.30169305 0.56689823
-0.045103978 -0.21463022 0.86196434 0.52491415 0.072717816 -0.50725454 0.73357338
0.21724245 -0.21462704 0.86703265 0.46997419 -0.15358403 -0.33165988 0.59536719
0.22319548 -0.21464761 0.8670972 0.45492744 -0.16200683 -0.30257037 0.56987196
-0.046633255 -0.20112227 0.86875004 0.53480232 -0.019282585 -0.48556146 0.72260314
0.21718213 -0.20900808 0.86975002 0.48583934 -0.11574495 -0.35636765 0.61354274
0.22635394 -0.20566909 0.86779171 0.47067496 -0.069430366 -0.3036927 0.5644331
0.21735299 -0.19169988 0.86641079 0.48665243 -0.0078226924 -0.34244761 0.59511524
0.22407232 -0.19345281 0.86453581 0.48554647 -0.0086203739 -0.34253925 0.59427506
0.21764413 -0.18651785 0.86590165 0.49767861 -0.013942765 -0.38080436 0.62680966
0.22145852 -0.18431488 0.86460727 0.49124032 -0.015308043 -0.35871571 0.60846394
0.21947499 -0.17009878 0.86950004 0.50796705 -0.048262306 -0.44064683 0.67418796
0.22286789 -0.17493267 0.86475003 0.48395509 -0.065425351 -0.33778104 0.59379208
-0.045456622 -0.16563863 0.86875004 0.53395689 -0.019866895 -0.48796514 0.72361225
0.21893778 -0.16594957 0.86906821 0.50980031 -0.043418579 -0.45996714 0.68800533
0.22228961 -0.16491883 0.86448127 0.50518632 -0.022265105 -0.42372078 0.65973347
0.21947843 -0.15111756 0.86641669 0.50947762 -0.020439629 -0.46566325 0.69052696
0.22201261 -0.15590273 0.86537862 0.50784403 -0.0043396056 -0.45730808 0.68341428
-0.046435319 -0.14638822 0.86506248 0.53256482 0.0057220124 -0.48451805 0.72001094
0.21813753 -0.14573206 0.86219573 0.50824225 0.0079153292 -0.46987772 0.69221234
0.22105496 -0.14886679 0.86075008 0.50804776 -0.0072258152 -0.45530045 0.68224865
-0.047809888 -0.13172445 0.86875004 0.53273976 0.0080912691 -0.48374677 0.71964443
0.21770567 -0.12527362 0.86481255 0.50652504 -0.089258187 -0.52929491 0.73802966
-0.048758149 -0.11295947 0.86470002 0.53315884 5.9047714e-05 -0.48908305 0.72350574
0.21956608 -0.11417744 0.86062503 0.50938517 -0.048267659 -0.48899886 0.70775908
0.22086081 -0.1154383 0.86570007 0.50864315 -0.02926293 -0.52091271 0.72864544
-0.048972424 -0.10993247 0.86850005 0.53295368 0.0034862254 -0.48732126 0.72217298
0.21960586 -0.10426518 0.86537504 0.50668657 0.0044192113 -0.5215745 0.72717994
0.2201134 -0.10685439 0.86737502 0.50739318 -0.019853873 -0.53277665 0.73599792
-0.049874444 -0.093543455 0.86375004 0.53323817 -0.035614766 -0.47078672 0.7122159
0.21938033 -0.095302276 0.86912507 0.50567067 0.003417287 -0.53155059 0.73366243
-0.045367107 -0.075782374 0.86260003 0.51732868 -0.15176056 -0.48956028 0.72823721
-0.042904895 -0.061454248 0.86475003 0.52766287 -0.090593725 -0.47152263 0.71342057
0.21959797 -0.066996999 0.86075002 0.46364009 -0.23991774 -0.48764512 0.71436715
0.22192782 -0.064030647 0.86529166 0.44623724 -0.27380067 -0.48607516 0.71439737
-0.042818069 -0.056659024 0.86300009 0.52936894 -0.07959158 -0.48641333 0.72330093
0.22866772 -0.055302504 0.86181831 0.47869202 -0.18088463 -0.42932394 0.6679703
0.23105443 -0.055294748 0.85999995 0.48239657 -0.17296028 -0.44148877 0.67641264
0.22669381 -0.044109419 0.86658341 0.47750169 -0.18146519 -0.42641065 0.6654048
0.23262829 -0.036026843 0.8663612 0.41185108 -0.31937641 -0.45432329 0.69139874
0.24108046 -0.031593218 0.86462504 0.44029814 -0.27265632 -0.52770108 0.73937297
0.24317411 -0.026976673 0.86687505 0.46237728 -0.17242494 -0.63352513 0.80304247
0.071872808 -0.014036948 0.86475003 0.47810292 0.074342109 -0.64442158 0.80584633
0.23928843 -0.018217847 0.86875004 0.43900785 -0.21093921 -0.66198498 0.82185602
0.24046507 -0.019394081 0.86875004 0.43889365 -0.2110582 -0.66197753 0.8218196
0.54595822 -0.015767979 0.86341667 -0.079612561 0.49905562 -0.48448044 0.70008284
0.072417706 -0.0099324901 0.86425006 0.47804165 0.074610427 -0.64443904 0.80584878
-0.39835346 0.046090219 0.86639845 0.53918588 -0.051008947 -0.49668881 0.73486263
-0.045068547 0.047243897 0.86133337 0.53301233 -0.034683954 -0.49557155 0.72862631
-0.39645642 0.054983884 0.86590976 0.53847188 -0.04820808 -0.481112 0.72370207
0.22380343 0.057831258 0.86620009 0.47714904 0.11679064 -0.54032874 0.73025095
-0.3941018 0.062028281 0.8646912 0.4541876 -0.25874513 -0.43873984 0.68244272
-0.37425083 0.065560766 0.86450005 0.044082865 0.51399648 -0.50341046 0.72080356
-0.044405583 0.065495364 0.86358339 0.53289837 -0.047675557 -0.49403223 0.72823173
0.21953419 0.067004845 0.86050004 0.45725721 0.17732906 -0.51682723 0.71248871
0.22101079 0.063749701 0.86571878 0.44525698 0.19798836 -0.54129148 0.7283197
0.20906779 0.07596305 0.86300004 0.41039225 0.2496091 -0.58218098 0.75475901
0.21327069 0.075967573 0.86210716 0.4274295 0.23336694 -0.53446811 0.72305757
0.22052577 0.070608146 0.86900002 0.44448993 0.19549143 -0.55423743 0.73686314
0.54751706 0.088148527 0.86218756 -0.0041585825 0.48786306 -0.55618966 0.73984772
0.56580681 0.086514235 0.86628127 0.0070292875 0.4942027 -0.50756669 0.70845586
-0.03049889 -0.48468089 0.87850004 0.5594635 -0.019563409 -0.49424043 0.74676347
0.20794596 -0.48065495 0.87550002 0.46922499 0.027935384 -0.46116093 0.65849972
-0.03139114 -0.4707031 0.87025005 0.55635285 0.0035177991 -0.49343279 0.74365097
0.20816828 -0.47313315 0.87270314 0.46422178 0.043898068 -0.42323512 0.6297276
0.21147457 -0.47130114 0.87245005 0.46278661 0.024431102 -0.40756595 0.61715341
-0.031469297 -0.46596214 0.87241673 0.55521464 0.013112128 -0.48968688 0.74042451
0.20923345 -0.46718344 0.87468755 0.47500682 -0.040822424 -0.51357383 0.70075387
0.21113968 -0.46647659 0.87348688 0.47087803 -0.013945149 -0.44105873 0.64533198
-0.032756932 -0.45622003 0.87525004 0.55446625 0.024734359 -0.48691159 0.7383275
0.20957683 -0.45415851 0.87241668 0.47517282 -0.067901276 -0.46059477 0.66524231
0.21013735 -0.45833257 0.87475002 0.47612569 -0.045507725 -0.51510388 0.70292151
-0.033926617 -0.44771218 0.87484372 0.55360913 0.027309276 -0.48241004 0.73481178
0.20799448 -0.44565192 0.8742857 0.47667757 -0.027902931 -0.44613153 0.65347797
-0.035092689 -0.4356429 0.87437505 0.55363536 0.024385359 -0.4800922 0.73320889
-0.036304597 -0.42411998 0.87504178 0.55582356 0.0018958934 -0.4878774 0.7395727
0.2083776 -0.42184207 0.87400001 0.47727394 -0.053197742 -0.42074147 0.63846987
-0.036411777 -0.4123092 0.87762499 0.55537999 -0.038586129 -0.49328795 0.74382043
0.20836161 -0.41985312 0.87725002 0.46656373 -0.11372147 -0.39804587 0.62374258
0.20804776 -0.40633613 0.87592858 0.48628873 -0.019381613 -0.47726718 0.68164235
0.20956428 -0.39339015 0.87335002 0.47321722 0.020933345 -0.38479143 0.61027634
0.21091808 -0.39762565 0.87800002 0.48623532 0.0021839775 -0.51352036 0.70720065
-0.03626138 -0.38397127 0.87400007 0.55032879 -0.031880945 -0.47564524 0.72809106
0.20852637 -0.38407868 0.87695009 0.49068031 -0.0057702623 -0.47918665 0.6858719
-0.036458451 -0.37595448 0.87875009 0.54960728 -0.0035354942 -0.49061626 0.7367394
0.20802762 -0.37471226 0.87584382 0.49227577 -0.06510897 -0.46880558 0.68290067
-0.03644808 -0.36811623 0.87850004 0.54785889 0.0093444809 -0.48541704 0.73202896
0.20823628 -0.36499345 0.87672234 0.49303797 -0.031926416 -0.46337339 0.67736298
-0.038242567 -0.35731286 0.87595004 0.54618967 0.021507815 -0.49130252 0.73495847
0.20810035 -0.35598731 0.87615001 0.48294505 -0.079514056 -0.39562696 0.62934816
0.20732066 -0.33481741 0.87537503 0.48203802 0.0087760538 -0.37560576 0.6111607
-0.040017594 -0.32172826 0.87850004 0.54548323 -0.014788316 -0.49241978 0.73501557
-0.039886635 -0.32659882 0.87562507 0.54588246 -0.01333067 -0.4912827 0.734523
0.20719339 -0.32547909 0.87042308 0.45764059 -0.077228978 -0.29641002 0.55068874
-0.040068842 -0.31559056 0.87962502 0.54446989 -0.029132938 -0.47448409 0.72279412
-0.039815456 -0.31536207 0.87406254 0.54400563 -0.029524088 -0.47415066 0.7222414
0.20833801 -0.31485078 0.87353414 0.45451024 -0.03840825 -0.28532553 0.5380199
-0.040074535 -0.30908364 0.87975001 0.54372311 -0.015000917 -0.49072483 0.7325781
0.20881464 -0.29618832 0.87334716 0.46359533 -0.063031815 -0.30134284 0.556508
-0.041201569 -0.28778833 0.87837505 0.53831524 -0.00031320564 -0.49052033 0.72828126
0.20924455 -0.28522217 0.87597233 0.49493742 -0.049504697 -0.39814031 0.63712597
0.2093945 -0.27529395 0.87330556 0.47678992 -0.064961866 -0.33177465 0.58448535
0.21117173 -0.2774615 0.87190908 0.44375485 -0.054116242 -0.25782675 0.51606351
-0.04114411 -0.26635921 0.87715006 0.53599626 -0.033080664 -0.49370661 0.72947419
0.20956682 -0.26810429 0.87237507 0.46353233 -0.089854062 -0.29958534 0.55918455
0.2121399 -0.26377535 0.8743127 0.47850764 -0.14417821 -0.36593759 0.61940879
0.21318932 -0.25610691 0.87450945 0.47530848 -0.1341051 -0.34371188 0.60169774
-0.041175183 -0.24422599 0.8778125 0.53537256 -0.018164765 -0.49302334 0.72802866
0.21173042 -0.24612847 0.87400007 0.49259257 -0.056626074 -0.36251736 0.61422533
-0.041166387 -0.23882383 0.87762505 0.53433818 0.0030156933 -0.4902207 0.72515011
0.21100503 -0.23383982 0.87343752 0.50167304 -0.044981863 -0.3913222 0.63783407
-0.042590436 -0.2246418 0.87331253 0.52537239 0.070333481 -0.48285207 0.71701401
0.21400568 -0.22194505 0.87533933 0.50687492 -0.086935192 -0.43634278 0.67444414
-0.045135137 -0.21606888 0.87390637 0.52620429 0.066921324 -0.48437959 0.71832651
0.2160857 -0.21734364 0.87709999 0.49768993 -0.13961363 -0.43131793 0.67321795
-0.047079455 -0.20779634 0.8770625 0.53152341 0.036981061 -0.48928916 0.72338688
0.21716137 -0.20527305 0.87278992 0.49573606 -0.065339297 -0.37313497 0.62390155
0.22354093 -0.20385139 0.87184459 0.48799849 -0.034187425 -0.34717286 0.59986687
0.21798734 -0.19748257 0.87577939 0.50584882 -0.03999605 -0.42020515 0.65882856
0.22360717 -0.1970792 0.87306672 0.49777165 -0.024032138 -0.38407409 0.62917966
-0.045757484 -0.18291813 0.87450004 0.53431273 -0.042804781 -0.49339965 0.72853655
0.21793339 -0.18243618 0.87220597 0.5046761 -0.027371725 -0.41472557 0.65379238
-0.045681179 -0.17433929 0.87304169 0.53379965 -0.027692256 -0.4719629 0.71306235
0.21823382 -0.17481539 0.87269241 0.50776005 -0.063551947 -0.44250029 0.67650986
0.22081156 -0.17681994 0.87112504 0.50682747 -0.055360325 -0.43422979 0.66969723
-0.045613591 -0.16148832 0.87175006 0.53386778 -0.013477343 -0.48665023 0.7225129
0.21843271 -0.16455911 0.87239593 0.51058316 -0.058303393 -0.48475361 0.7064563
0.22018029 -0.16087936 0.87700003 0.51069522 -0.034404058 -0.50195158 0.71690208
-0.045904644 -0.15796453 0.87731254 0.52201092 -0.017498437 -0.60838455 0.80183125
0.2197905 -0.15666786 0.87075007 0.51039058 -0.021150758 -0.48246846 0.70265335
0.22019355 -0.15676923 0.87391669 0.51045018 -0.041652355 -0.50938934 0.72233772
-0.04681576 -0.14227405 0.87215006 0.53285259 0.0085588843 -0.48458084 0.72029418
0.21843065 -0.14329278 0.87475008 0.50915498 -0.0046664216 -0.51603216 0.72494811
-0.047430422 -0.13468739 0.87262505 0.53270835 0.0098106135 -0.48431 0.72002125
0.21915637 -0.13544729 0.87765622 0.50560629 -0.068208687 -0.55666149 0.75509083
-0.048123576 -0.12725607 0.87445003 0.53297728 0.0059935767 -0.48382562 0.71985275
0.22246802 -0.12316299 0.87900007 0.49975234 -0.094230488 -0.57282084 0.76599967
0.22310577 -0.11128286 0.87916678 0.50696683 -0.014706934 -0.5226844 0.72830671
-0.049270473 -0.10569658 0.87378579 0.53295547 0.0056854635 -0.4816936 0.7184028
0.22116828 -0.10438935 0.87620831 0.50662249 -0.004044272 -0.52259624 0.72786647
-0.050473511 -0.092299953 0.874125 0.5334838 0.0042769611 -0.49320596 0.72655034
0.2197905 -0.095480502 0.87075007 0.50655907 0.0018652827 -0.51358515 0.72137046
0.22004293 -0.090278812 0.87175006 0.50682145 -0.051335871 -0.52862275 0.73412895
-0.050519228 -0.087052785 0.87491673 0.53098643 -0.062311023 -0.4470163 0.69688797
0.21992923 -0.087160796 0.87600005 0.50482154 -0.082721196 -0.52612901 0.73382509
0.22100534 -0.085169174 0.87516314 0.50488573 -0.079341382 -0.52724773 0.73429888
0.2218792 -0.075152248 0.87433344 0.49823517 -0.095962405 -0.56907928 0.76242918
0.22275257 -0.063632913 0.87555951 0.46760818 -0.22728136 -0.51977277 0.73517209
0.22611371 -0.056201987 0.87640631 0.4976896 -0.11704646 -0.47433972 0.69741881
-0.042376153 -0.045756768 0.87806255 0.532511 -0.03900709 -0.49042729 0.72498858
0.22572878 -0.043086432 0.87345839 0.49211973 -0.13308316 -0.44664961 0.6777823
-0.042433467 -0.039866142 0.87925005 0.53232783 -0.029670293 -0.4738794 0.71331263
0.22704914 -0.037672929 0.87507761 0.39168319 -0.35010779 -0.49229452 0.71996188
0.23189694 -0.036264919 0.87137508 0.39487275 -0.34514365 -0.51076144 0.73206955
0.075889088 -0.017075939 0.87050003 0.49182731 0.07753703 -0.58131832 0.76539993
0.50144464 -0.018338425 0.87450004 -0.088066295 0.48529032 -0.47048074 0.68162638
0.51980036 -0.017134789 0.87350005 -0.097056031 0.48933953 -0.46339926 0.6808905
-0.39606148 0.045099113 0.87530982 0.53607261 -0.069527626 -0.46431914 0.71260101
-0.39667961 0.053516049 0.87491673 0.50067812 -0.18338782 -0.4725253 0.71245337
-0.044469304 0.053758122 0.8724643 0.53368688 -0.030833591 -0.49600071 0.72923869
0.22360516 0.058445316 0.87183338 0.47769913 0.11284187 -0.5416857 0.73099464
-0.39616627 0.063095286 0.87785721 0.50049257 -0.17675799 -0.44691747 0.69388139
-0.38428348 0.066348881 0.87825006 -0.16267267 0.46875587 -0.55161309 0.74193764
-0.37645578 0.066235714 0.87600011 -0.026663389 0.50771761 -0.54222739 0.74330258
0.22129554 0.06497667 0.87437505 0.44685557 0.19215998 -0.54185104 0.72815377
0.21813935 0.074495815 0.87454998 0.44228694 0.20087552 -0.54938042 0.73334002
0.22055689 0.073164195 0.87850004 0.4416236 0.20187557 -0.54258204 0.72813493
0.56458956 0.087408714 0.87482154 0.08868327 0.47192559 -0.52573377 0.71202141
0.57544988 0.085574389 0.87921882 0.20176786 0.41915187 -0.4899992 0.67564619
-0.030728891 -0.49133205 0.88512504 0.56096894 -0.036353983 -0.47753742 0.73759729
0.21104272 -0.49102807 0.88350004 0.46354237 -0.0057264315 -0.56955326 0.73436719
-0.030793985 -0.48816678 0.88700002 0.56115848 -0.035592642 -0.4775677 0.73772395
0.20940897 -0.48572111 0.88418752 0.46590751 -0.038182173 -0.56861818 0.73610753
0.2106446 -0.4877151 0.88183337 0.46563125 -0.033393003 -0.56607282 0.73373425
0.21127628 -0.47319123 0.8876251 0.4666841 -0.049014144 -0.56499875 0.73445219
-0.031968281 -0.46555346 0.88625002 0.5572508 0.014439758 -0.48391294 0.73817933
0.21184145 -0.46466979 0.8868438 0.46799681 -0.018542698 -0.56507307 0.73394305
-0.033166744 -0.45652828 0.88620007 0.55528098 0.029750049 -0.48155141 0.73560435
0.20946014 -0.45251384 0.88187504 0.47472543 0.0012393892 -0.5229947 0.70632088
0.21187876 -0.45934686 0.88700002 0.46867993 0.011554193 -0.55378193 0.72558165
-0.034248732 -0.44419593 0.88314998 0.55454695 0.026951624 -0.48248774 0.73555636
0.20901479 -0.44857299 0.88000005 0.47713464 -0.0087442826 -0.51257968 0.70033699
0.21000741 -0.44124821 0.88925004 0.46855921 -0.019623509 -0.59177679 0.75507122
-0.035539187 -0.43638578 0.88550001 0.5546658 0.027088542 -0.48169026 0.73512816
0.20966795 -0.43085173 0.88275003 0.47976848 -0.048271667 -0.53092718 0.71721101
0.21012551 -0.43908697 0.88975006 0.46929115 -0.029081728 -0.59069031 0.75498015
-0.036627002 -0.4219164 0.88281256 0.55684811 -0.014625511 -0.49661553 0.74627119
0.20963854 -0.42482957 0.88599998 0.47527853 -0.036164485 -0.57861781 0.74966401
-0.036058091 -0.41530132 0.88564289 0.55658054 -0.028230373 -0.50907958 0.75481182
0.2098303 -0.4192225 0.88850003 0.47568366 -0.037719447 -0.57828665 0.74974209
0.21012551 -0.41740295 0.88975006 0.47593313 -0.036345098 -0.57844335 0.74995333
-0.035596877 -0.40587097 0.88693756 0.55520821 -0.044069983 -0.49758005 0.74684954
0.20966795 -0.4021658 0.88275003 0.48300198 -0.043321788 -0.55864429 0.73976421
0.21069933 -0.40125531 0.88206255 0.48598358 -0.038528163 -0.52165234 0.71399277
0.20988567 -0.39540708 0.88366669 0.48424241 -0.016030217 -0.55671483 0.73802376
0.21057908 -0.39681631 0.8828125 0.48542389 -0.019251268 -0.54068917 0.72687811
0.20944807 -0.38613871 0.88384998 0.48653889 -0.010769686 -0.5529843 0.73663265
-0.036569953 -0.37411985 0.88143754 0.54940355 -0.00036699697 -0.49712306 0.74092895
0.20977126 -0.37941757 0.88825005 0.48493862 -0.026469953 -0.57605743 0.75346416
0.21012551 -0.37764895 0.88975006 0.48448682 -0.03400645 -0.57974768 0.75630111
-0.037060145 -0.36527538 0.88362503 0.54717237 0.022080991 -0.49341738 0.73711997
-0.03908189 -0.35316196 0.8842501 0.5479058 0.012122305 -0.50022435 0.74200547
-0.039119948 -0.34452236 0.88511115 0.54834187 0.0013316274 -0.5010401 0.74277973
-0.039262366 -0.33855882 0.88833338 0.54812157 -0.004373502 -0.49324775 0.73739392
0.20916903 -0.33347946 0.88570005 0.49750343 -0.04844569 -0.52407157 0.72422898
0.20879708 -0.32558352 0.88412505 0.49932504 -0.054199539 -0.52000517 0.72295815
-0.040114392 -0.31416097 0.88062501 0.54426205 -0.02907145 -0.47450647 0.72264975
0.20924728 -0.31169698 0.88266677 0.50145298 -0.06068401 -0.50510061 0.71432787
-0.04020692 -0.30471978 0.88265628 0.54296499 -0.0095367115 -0.49218419 0.73290324
0.20937106 -0.29895699 0.88150007 0.50160563 -0.082455322 -0.48048347 0.6994794
0.21098915 -0.29736003 0.88831258 0.49932733 -0.072977901 -0.55061495 0.74688041
-0.041371606 -0.27464795 0.88200009 0.53695387 -0.028353367 -0.48963961 0.72723472
0.21105979 -0.27453446 0.88357151 0.50165236 -0.069066793 -0.55491263 0.75123453
-0.041312974 -0.26054323 0.88075006 0.53534335 -0.02453028 -0.47469509 0.71591181
0.21168597 -0.2641477 0.88452083 0.5015415 -0.087138578 -0.55819279 0.75545764
-0.041397989 -0.25510579 0.88256252 0.53535026 -0.024877369 -0.47465634 0.71590322
0.21390185 -0.24634209 0.88542855 0.50981891 -0.04954733 -0.53475243 0.74049336
-0.041498251 -0.23583269 0.8847 0.53339952 0.016568974 -0.48432928 0.72066945
0.21394929 -0.23260741 0.885625 0.50319141 -0.094229281 -0.57749176 0.77173668
-0.043154407 -0.22409059 0.88591671 0.52568185 0.071684405 -0.48522493 0.71897382
-0.044746816 -0.21884848 0.88575006 0.52601087 0.070588261 -0.47947478 0.71523857
0.21645008 -0.21352692 0.88604182 0.50431657 -0.11935508 -0.53140098 0.74227208
0.21718511 -0.20693579 0.88609999 0.50418335 -0.12344205 -0.51651192 0.73227268
-0.046372294 -0.19497764 0.88625002 0.53514493 -0.045319427 -0.49234205 0.72858399
0.21789819 -0.19228764 0.88218755 0.51147199 -0.029705422 -0.48670146 0.70665717
-0.046258926 -0.18492343 0.88408333 0.53468865 -0.04679881 -0.49292421 0.7287361
0.21872324 -0.1852228 0.88552785 0.51034623 -0.027086962 -0.52435142 0.73220992
-0.046110675 -0.17836387 0.88125002 0.53465044 -0.039751355 -0.49504086 0.72972369
0.21923824 -0.17512344 0.88553578 0.50929004 -0.065748669 -0.52528495 0.73459071
0.21980405 -0.16266735 0.88025004 0.50996721 -0.064013608 -0.50310838 0.71922338
0.22075336 -0.1650176 0.8864584 0.50983125 -0.048818722 -0.5131889 0.72503376
-0.046248022 -0.15435943 0.88387507 0.53169256 -0.0010910369 -0.54534847 0.76164502
0.2219348 -0.15583159 0.88572729 0.5090394 -0.057842396 -0.51613474 0.72722894
0.2204283 -0.14878707 0.88275003 0.50925303 -0.030563552 -0.52431166 0.73155689
-0.04751895 -0.13902056 0.88525003 0.52818799 0.0509331 -0.51368409 0.73854458
0.21980405 -0.13048862 0.88025004 0.49946183 -0.095175415 -0.57933891 0.77081388
-0.048698671 -0.12278664 0.88489997 0.53382403 0.001268724 -0.48502627 0.72126287
0.21986647 -0.12933354 0.88050002 0.4993265 -0.09514875 -0.5793435 0.77072638
0.22201598 -0.12523517 0.88312501 0.49888894 -0.11585345 -0.55644262 0.75626755
-0.048938062 -0.11978289 0.88925004 0.53419918 0.00020041503 -0.48450983 0.72119248
0.22364502 -0.11692206 0.88129169 0.50630248 -0.038482621 -0.54031217 0.74145824
-0.049804136 -0.10143249 0.88325 0.53405988 0.00090389512 -0.48972476 0.72460413
0.21956027 -0.10168537 0.88891673 0.50704849 -0.0095436946 -0.50015807 0.71228319
0.22192828 -0.10347809 0.88822228 0.50556427 0.0064389966 -0.49349359 0.70652151
-0.051000409 -0.091469757 0.88325006 0.53432316 -0.0015564766 -0.48909912 0.72437674
0.21961173 -0.098698936 0.88912499 0.50743377 -0.022361886 -0.50552422 0.71661973
0.22159177 -0.096237533 0.88651568 0.50700194 -0.038234524 -0.51026952 0.7203387
-0.050949879 -0.0877956 0.882375 0.53423887 -0.042205587 -0.52306151 0.74885637
0.2218387 -0.08401978 0.88733333 0.50456959 -0.073695257 -0.52053487 0.7286824
0.22351645 -0.076027267 0.88771158 0.50291485 -0.084842697 -0.51908803 0.72771835
0.22264196 -0.064358756 0.88510716 0.49911436 -0.11333366 -0.51892471 0.72886389
-0.042744145 -0.052750334 0.88568753 0.53258103 -0.030057017 -0.47390029 0.71353173
0.22598808 -0.057549912 0.88392496 0.49771336 -0.11032476 -0.53531694 0.73922551
-0.042879879 -0.04509237 0.88850009 0.53298831 -0.030403754 -0.47386715 0.71382838
0.22685964 -0.045350302 0.88555557 0.49096358 -0.14129634 -0.53790021 0.74185342
0.22694567 -0.036080275 0.88694447 0.4233152 -0.3057825 -0.48678416 0.71390301
0.23520496 -0.034402486 0.88713467 -0.23959467 0.40316808 -0.50826824 0.69158274
0.24354047 -0.03194261 0.88459086 -0.18163751 0.43110812 -0.47728613 0.66831762
0.53751683 -0.016110778 0.88218755 -0.092971727 0.4960162 -0.51542723 0.72134668
0.54054117 -0.01611192 0.88225007 -0.12403147 0.49554649 -0.50286883 0.71681738
-0.3965863 0.048037864 0.88454998 0.54443252 0.0012334716 -0.47619534 0.72330511
-0.39734569 0.055940505 0.88484246 0.50902671 -0.15104528 -0.42675385 0.68120605
-0.044432286 0.055077184 0.88750005 0.53393435 -0.044512372 -0.48474833 0.72252899
0.22445431 0.059054624 0.88450015 0.47472271 0.12389112 -0.49674883 0.69819057
-0.39430207 0.063186981 0.88137001 0.40703565 -0.32296222 -0.45259315 0.68907416
-0.38890108 0.06676919 0.88043749 -0.20996639 0.44730663 -0.5188098 0.71647245
-0.36456373 0.069029398 0.88650006 -0.031267025 0.50357211 -0.5469085 0.74409097
-0.045222927 0.064290568 0.88725001 0.53414667 -0.030778008 -0.49071112 0.72598714
0.22178924 0.064202003 0.88442111 0.47585005 0.12387764 -0.49674928 0.69895554
-0.044008836 0.070269272 0.88700002 0.53382593 -0.029772975 -0.48841485 0.72415853
0.21762009 0.074432686 0.88459092 0.471091 0.1391079 -0.47821033 0.68553835
0.22107942 0.071794324 0.88467866 0.47388083 0.1289175 -0.48507831 0.69027799
0.57748437 0.0789565 0.88791662 0.23299353 0.38586497 -0.42948848 0.62260592
0.58196914 0.078677192 0.88871878 0.25148827 0.36192021 -0.3937276 0.59097719
0.56534988 0.087673634 0.88087505 0.10785288 0.46516919 -0.48542172 0.68091762
0.57459384 0.083295994 0.88302034 0.2003262 0.41858864 -0.48977515 0.67470491
0.58091056 0.080940649 0.88550001 0.20825174 0.4042381 -0.40985087 0.61217231
0.21292193 -0.49693125 0.89850008 0.4584558 0.003155455 -0.5730738 0.73389733
-0.031064779 -0.48275781 0.89480001 0.56124461 -0.006590955 -0.48964548 0.74484336
0.21065687 -0.48608842 0.89200002 0.46157014 -0.019571956 -0.58435839 0.74491936
-0.03108908 -0.47466081 0.89550006 0.56035286 -0.0033899881 -0.48880509 0.74359751
0.21278536 -0.4718205 0.89587504 0.46259847 -0.046633683 -0.57949293 0.74295634
-0.03228616 -0.46533582 0.89506257 0.55793804 0.019457065 -0.48515251 0.73962587
0.21361667 -0.46758217 0.89937508 0.46482885 -0.030909602 -0.56741422 0.73415267
-0.033450644 -0.45317432 0.89378577 0.5559237 0.0306259 -0.48092413 0.73571539
0.21141964 -0.45915747 0.89012504 0.46882123 0.004563408 -0.55790889 0.72874999
-0.034713127 -0.4459812 0.89512503 0.55622137 0.029476957 -0.4820866 0.73665363
0.21059783 -0.44691765 0.89175004 0.46719041 -0.013895296 -0.58823383 0.75131816
-0.035882004 -0.43333027 0.89404172 0.55718648 0.011344448 -0.4874621 0.74040854
0.21118747 -0.434306 0.89168751 0.46851209 -0.031104263 -0.59629405 0.75897145
0.21155724 -0.41447926 0.89581251 0.47474316 -0.043285362 -0.5777238 0.74901235
-0.035773303 -0.40124965 0.8913334 0.55520499 -0.02758041 -0.49485862 0.74424344
0.21182783 -0.40378046 0.89695835 0.47909674 -0.04125357 -0.56211448 0.73973525
-0.035978153 -0.39929652 0.89643753 0.55524075 -0.011270078 -0.49834195 0.74616623
0.21171959 -0.39508525 0.89650005 0.48114163 -0.015849888 -0.56030715 0.73871005
0.2105388 -0.3850266 0.89150006 0.48473272 -0.019541636 -0.56609392 0.74552667
0.21146128 -0.3745935 0.89540631 0.48310754 -0.039453331 -0.58280003 0.75802726
-0.037765909 -0.3642002 0.89280003 0.54788005 0.021471318 -0.49952 0.74172354
0.21162681 -0.36578849 0.89610714 0.48415089 -0.027679823 -0.57864159 0.75497967
-0.03839644 -0.35489875 0.89620471 0.5491994 0.0077518094 -0.50136626 0.74367207
0.20974225 -0.35010877 0.89325005 0.4872812 -0.029476531 -0.5770117 0.75581372
0.21077494 -0.35787275 0.8925001 0.48627874 -0.030589387 -0.57736999 0.75548583
0.21069051 -0.3463369 0.89600003 0.48538861 -0.035189327 -0.5907346 0.7653808
-0.039347079 -0.33687949 0.89025003 0.54812741 -0.0043497011 -0.49324858 0.73739862
0.21107015 -0.33820391 0.89375007 0.48725018 -0.043659758 -0.59056664 0.76686889
0.21095207 -0.32228887 0.89325011 0.48887053 -0.045219906 -0.59717697 0.77308446
0.211448 -0.31674984 0.8953501 0.49006861 -0.051762328 -0.59427518 0.77201653
-0.040628754 -0.30128112 0.89191669 0.54215503 0.00070882775 -0.49533442 0.73436284
0.21134174 -0.30591547 0.89490002 0.49246857 -0.058938757 -0.58954638 0.77043104
-0.040823869 -0.29787284 0.89620006 0.54146457 0.0053132512 -0.49491337 0.73358798
0.21182935 -0.29449397 0.89185011 0.49434897 -0.066320255 -0.58499396 0.76876342
-0.041874543 -0.28584063 0.89272237 0.53909236 -0.011405054 -0.49556482 0.73234904
0.2121025 -0.28423291 0.89300001 0.49427509 -0.059007227 -0.59153807 0.77311516
0.21333462 -0.27542955 0.89818752 0.49374735 -0.074217081 -0.59467638 0.77648866
0.21330391 -0.26507199 0.89466667 0.49476248 -0.085049063 -0.59448737 0.77809924
0.21454149 -0.25753513 0.89308333 0.50224906 -0.084121227 -0.56454152 0.76028788
0.21459654 -0.24188435 0.89331251 0.50297683 -0.05556298 -0.59034926 0.77755076
-0.041937415 -0.23451696 0.89406252 0.52902955 0.057021439 -0.4974432 0.72840476
0.21501486 -0.23442785 0.89254171 0.49888933 -0.083548844 -0.60333478 0.78732699
-0.043453109 -0.22364423 0.8953501 0.52774793 0.045710295 -0.55271459 0.76557213
0.21659324 -0.2251433 0.89371431 0.50060999 -0.099038094 -0.58403963 0.77557796
-0.045978855 -0.21729691 0.89416671 0.52499104 -0.021487754 -0.60296738 0.79977936
0.21741703 -0.21869436 0.89000005 0.50201565 -0.099535428 -0.57495779 0.76974243
-0.04687199 -0.20435639 0.89579999 0.51513398 -0.0091796033 -0.63998306 0.82159942
0.21899654 -0.20476036 0.89316672 0.50162333 -0.093628779 -0.57821721 0.77118576
0.2200349 -0.20070262 0.89575005 0.50336081 -0.064145178 -0.57964295 0.77037179
-0.046930417 -0.19732024 0.89691669 0.5271101 0.051437154 -0.54777253 0.76193541
0.2206797 -0.19946568 0.89837503 0.50286257 -0.053335521 -0.58330375 0.77198362
0.21979885 -0.18271667 0.89975005 0.50830495 -0.034253515 -0.5406155 0.74284071
0.22074114 -0.18370503 0.89862508 0.50715882 -0.039612722 -0.55203825 0.75068337
-0.045745365 -0.17314823 0.89750004 0.53311872 -0.05725364 -0.53466219 0.75720358
0.22145256 -0.17444403 0.89855003 0.50881636 -0.041709118 -0.52638918 0.73329347
-0.045737725 -0.16704038 0.89735001 0.531385 -0.064198978 -0.54587263 0.76450539
0.21955313 -0.16431238 0.89791673 0.50936341 -0.052427843 -0.49685672 0.71348888
0.2209679 -0.16466548 0.89462507 0.50948167 -0.046149202 -0.49921849 0.71478695
-0.046908617 -0.15171 0.89649999 0.53321195 0.016306927 -0.49530923 0.72795063
-0.038722366 -0.15436156 0.89433336 0.52584207 0.047970198 -0.53786659 0.75373173
0.21997349 -0.15942325 0.89550006 0.5090391 -0.059385143 -0.49690622 0.71383697
0.22173452 -0.15529393 0.89565378 0.50837016 -0.063848838 -0.49453729 0.7120983
-0.047052506 -0.14913307 0.89925003 0.53341597 0.016226621 -0.49518037 0.72801065
-0.039722759 -0.1484419 0.89875007 0.53165811 0.016082259 -0.49529403 0.72679788
0.22206324 -0.14405611 0.89565384 0.50690639 -0.079286695 -0.48824599 0.70825458
-0.048216775 -0.13741323 0.89825004 0.52371395 0.07758081 -0.47640708 0.71222103
0.22217943 -0.1348042 0.89706254 0.50559771 -0.069260105 -0.53914797 0.74236548
0.22367942 -0.12512895 0.89768749 0.50685197 -0.056708857 -0.51655042 0.72590578
-0.04923559 -0.11505128 0.89465624 0.53454846 0.0040341225 -0.48600101 0.72246474
0.22365066 -0.1145518 0.89485425 0.50374973 0.019636214 -0.49150831 0.70408082
0.21990101 -0.10272321 0.89275002 0.50697356 -0.014749108 -0.48808202 0.70389187
0.22106156 -0.1067644 0.8941471 0.5043087 0.014933106 -0.48643211 0.70083272
-0.050466686 -0.099351354 0.89500004 0.53557575 -0.044643898 -0.50475067 0.73729759
0.21995136 -0.097043306 0.89050007 0.50715524 -0.028055444 -0.51037747 0.72005469
0.22154114 -0.094596699 0.893525 0.50493842 -0.076001123 -0.48858553 0.70672119
-0.050325718 -0.085177355 0.89250004 0.53109032 -0.089983821 -0.52613711 0.75297695
0.22300798 -0.084308177 0.8963334 0.50265783 -0.073018156 -0.45558491 0.68231529
0.22388811 -0.075050704 0.89684099 0.50157833 -0.060360145 -0.44474015 0.67306608
0.22273701 -0.065653242 0.89402086 0.49898249 -0.097981244 -0.45139101 0.67995417
-0.043326292 -0.057721931 0.89775002 0.53360742 -0.030544661 -0.47360605 0.71412367
0.22824028 -0.054849889 0.89328575 0.49194145 -0.14153847 -0.51897931 0.72895753
0.22694138 -0.044701118 0.89355767 0.48948517 -0.13846844 -0.55459106 0.75255597
-0.042988468 -0.039181545 0.89075005 0.53305846 -0.030463111 -0.4738588 0.7138778
0.22708964 -0.037002429 0.89645839 0.47986889 -0.18199955 -0.52919298 0.73718601
0.2322551 -0.03343755 0.89843756 -0.28970104 0.3688775 -0.54616433 0.71992552
0.25022516 -0.029682577 0.89525002 -0.19909661 0.42370412 -0.46331009 0.65865082
0.5448671 -0.015204849 0.89925003 -0.10880502 0.49872327 -0.50028378 0.71473587
0.55383974 -0.015183714 0.89800006 -0.09533149 0.50243556 -0.48235583 0.70299131
-0.40157402 0.041741371 0.89316672 0.5388304 0.10596954 -0.48206371 0.730721
-0.39810571 0.044280395 0.89702511 0.54549086 0.023130905 -0.52900821 0.76022696
-0.4005248 0.051637799 0.89712501 0.5437364 0.0099110873 -0.53484362 0.76276159
-0.39839572 0.055524856 0.89317501 0.53782642 -0.060541134 -0.4779658 0.72206217
-0.044325132 0.056868598 0.89337504 0.53372627 -0.055138819 -0.5028283 0.73535049
0.22417545 0.059050124 0.89291668 0.47416478 0.12454316 -0.49294138 0.69522262
-0.39625186 0.063644484 0.89597631 0.4898856 -0.2092896 -0.50183451 0.73186606
-0.38196424 0.067154981 0.89350003 -0.060222365 0.50373298 -0.51774919 0.72487092
-0.045215383 0.062582925 0.89306259 0.53405291 -0.044240408 -0.48351744 0.72177476
0.21960501 0.066948041 0.89400005 0.4794361 0.10921665 -0.48948017 0.69381416
0.2208761 0.064783998 0.89244753 0.47941509 0.10979497 -0.49233967 0.69591105
0.21789427 0.073806599 0.89345008 0.47518957 0.12582627 -0.50044352 0.70148492
0.22043572 0.070974953 0.89083338 0.4752363 0.12444098 -0.50291646 0.70303631
0.57787675 0.076094933 0.89532137 0.26116994 0.35175303 -0.40075082 0.59375173
0.58236307 0.074147135 0.89164758 0.28266954 0.32750222 -0.39824367 0.58801174
0.55499548 0.089077599 0.89497924 0.026716433 0.48317751 -0.50283545 0.69786662
0.56566417 0.088685296 0.89409381 0.1247713 0.45358792 -0.45292163 0.65302974
0.57385689 0.08463534 0.89540565 0.1802194 0.42259893 -0.42045578 0.62277764
-0.031366814 -0.48012444 0.90350002 0.56177509 0.0013105795 -0.49123996 0.7462638
0.21284136 -0.48283377 0.90125006 0.45999837 -0.029113535 -0.58162451 0.74211395
-0.031451438 -0.47590202 0.90593749 0.56131214 0.009175349 -0.4889549 0.74446785
0.21372697 -0.47908035 0.90500003 0.45928085 -0.033670407 -0.58163416 0.74186987
-0.032665234 -0.46405199 0.90557146 0.5586527 0.028386476 -0.48305824 0.73908317
0.21426819 -0.46555945 0.90729171 0.46135494 -0.023721023 -0.57603103 0.73839206
-0.033931166 -0.45416582 0.90662503 0.55789632 0.030323142 -0.48282561 0.7384364
0.21338749 -0.45752585 0.90356255 0.46444967 -0.015063399 -0.57579005 0.73991525
-0.035140399 -0.44594398 0.90614289 0.55767566 0.030485267 -0.48437133 0.73928821
0.21325466 -0.44073534 0.90300006 0.46152911 -0.040843964 -0.61064929 0.76653105
-0.036289699 -0.43152279 0.90419996 0.55964696 -0.015614301 -0.49646381 0.74828124
0.21418455 -0.43681806 0.90693754 0.46433753 -0.027202606 -0.59645492 0.75637805
-0.035766412 -0.42463169 0.90646875 0.55940104 -0.022172013 -0.5017063 0.75175154
0.21278232 -0.42024079 0.90100002 0.46997771 -0.02378184 -0.5913977 0.75577497
-0.035155866 -0.4148424 0.90654165 0.55826944 -0.02609786 -0.49959204 0.74962527
0.21278232 -0.40072241 0.90100002 0.47755083 -0.028195512 -0.57056922 0.74457973
-0.036303975 -0.39494717 0.90455562 0.55547464 -0.0070339385 -0.49133223 0.74162585
0.21269375 -0.39689797 0.90062499 0.47822264 -0.030605594 -0.57231641 0.7464447
-0.036261607 -0.38715592 0.90350002 0.55418432 -0.030084891 -0.47586447 0.73107618
-0.037476081 -0.36504635 0.90327781 0.55026263 0.0063968077 -0.49921075 0.74299479
-0.03760355 -0.3576934 0.90635002 0.55015367 0.012143731 -0.50244951 0.74516577
0.21220773 -0.35636982 0.90375006 0.47985989 -0.020618709 -0.59906685 0.76783574
-0.038724303 -0.34691593 0.90385717 0.549923 0.013534345 -0.49345097 0.73898059
0.21311761 -0.34898418 0.90762508 0.48092288 -0.038316339 -0.59951437 0.76952744
-0.040043194 -0.33241192 0.90600008 0.54975522 -0.012047641 -0.49092054 0.73714244
-0.039884817 -0.33720389 0.90241671 0.55003709 -0.0049183946 -0.49172884 0.73780906
-0.04015211 -0.32655054 0.90846431 0.54949069 -0.020842835 -0.49899015 0.74254
-0.039954796 -0.32005134 0.90400004 0.54730159 -0.029410301 -0.47478977 0.72514087
-0.040183153 -0.31326428 0.90916675 0.54702818 -0.015418048 -0.48869178 0.7336874
-0.039833255 -0.31663728 0.90125006 0.54687834 -0.017508689 -0.49426743 0.7373485
-0.040164739 -0.30942911 0.90875006 0.54579598 -0.0064951815 -0.48779783 0.73203975
0.21372697 -0.30263561 0.90500003 0.48998752 -0.064951561 -0.59388864 0.77266437
-0.041150704 -0.2959789 0.90337503 0.54223031 -0.00043202937 -0.49295598 0.73281616
-0.041372772 -0.28159046 0.90825003 0.53932345 -0.022593237 -0.492309 0.73058087
0.21471518 -0.28332508 0.90400004 0.4918952 -0.063527316 -0.5978322 0.77678823
-0.041304443 -0.27601087 0.90675002 0.53837693 -0.023667581 -0.49133554 0.72926021
0.2153832 -0.27439246 0.90681255 0.49127471 -0.06130629 -0.60688776 0.78321266
-0.041327219 -0.26961079 0.90725005 0.53719795 -0.023961958 -0.4750925 0.71754348
0.21551256 -0.2641274 0.90391666 0.49312431 -0.083154723 -0.60090977 0.78177929
0.21726404 -0.25345984 0.90441674 0.49832901 -0.070124134 -0.59654462 0.78045797
0.21740417 -0.24872448 0.90500003 0.4994956 -0.067138933 -0.59784991 0.78193861
-0.042468049 -0.23289177 0.90537506 0.53027254 0.051617146 -0.49444324 0.72686136
0.21758434 -0.23789363 0.90575004 0.49917668 -0.076889098 -0.59765708 0.78248531
-0.044215344 -0.22188798 0.90600002 0.53575224 -0.050090373 -0.500462 0.73484814
0.21900421 -0.22304647 0.90275002 0.49962309 -0.088339031 -0.58981913 0.77801907
-0.046752892 -0.2155609 0.90528131 0.53632027 -0.033961806 -0.47727656 0.71873903
-0.035163946 -0.21176107 0.90675002 0.53232789 -0.012717891 -0.53821635 0.75710738
0.21938495 -0.215177 0.90306258 0.49954119 -0.091889963 -0.58822238 0.77716839
0.2203415 -0.21059145 0.90700006 0.50167179 -0.088780046 -0.57453144 0.76788205
-0.047183316 -0.20937248 0.90175003 0.5363881 -0.014353329 -0.49361241 0.72908944
-0.035105776 -0.20650952 0.90525007 0.52977031 -0.068108909 -0.5482896 0.76545209
0.22147222 -0.2068145 0.9066 0.50107843 -0.091606215 -0.57544518 0.76851058
0.22171929 -0.19490539 0.90260726 0.50380433 -0.035452086 -0.5761317 0.7661615
-0.046280552 -0.18285786 0.90799999 0.53138286 -0.095204204 -0.49981868 0.73569715
0.21985991 -0.18093961 0.90000004 0.50838286 -0.028012369 -0.5383392 0.74097699
0.22139063 -0.18619521 0.90700001 0.50568235 -0.020048732 -0.55692995 0.7525208
-0.045974735 -0.17767796 0.90200007 0.53287226 -0.075501993 -0.51905584 0.74771142
0.21992098 -0.17977099 0.90025002 0.50826842 -0.028025039 -0.53834051 0.74089992
0.22086197 -0.17511429 0.90243751 0.50862235 -0.028489489 -0.5269835 0.73295289
-0.044779424 -0.16191399 0.90265006 0.53430408 -0.020586895 -0.52245843 0.74757439
-0.038794689 -0.16978545 0.90550005 0.53018045 -0.090598151 -0.49336645 0.72986972
0.21967342 -0.16220595 0.90425003 0.50906026 -0.04983497 -0.49642554 0.7127862
0.22038482 -0.16432209 0.90466666 0.50905514 -0.046594467 -0.50265688 0.71691847
-0.044646673 -0.15854211 0.90606254 0.53461719 -0.0086847153 -0.49397731 0.72794545
0.21970379 -0.15671778 0.90437502 0.50843412 -0.058688816 -0.48735484 0.70672792
0.22066396 -0.1534688 0.90330011 0.50740701 -0.072026148 -0.48317549 0.70434946
-0.046453748 -0.1451353 0.90345836 0.52749503 0.052841678 -0.46412289 0.70459443
0.22239651 -0.14669928 0.90466076 0.50619644 -0.082009196 -0.4854537 0.70613432
-0.04583668 -0.13514011 0.90419996 0.52703381 0.059361145 -0.51736438 0.74091446
0.22219758 -0.13407005 0.90622222 0.50713766 -0.059668571 -0.48867273 0.70678848
-0.04875803 -0.12850145 0.90833336 0.53320396 0.024477031 -0.49501437 0.7279731
0.22204216 -0.12418479 0.9021765 0.50739777 -0.026678097 -0.49455589 0.70904845
-0.050052483 -0.11142793 0.90950006 0.53516364 -0.0095309205 -0.528795 0.75240624
0.22241731 -0.11567868 0.90504169 0.50486594 0.0069063827 -0.49516442 0.70719522
0.22104843 -0.10472426 0.90654165 0.5055545 -0.0082277264 -0.50306165 0.71324897
-0.051051706 -0.098051161 0.905375 0.53481883 -0.069724284 -0.49470699 0.73186588
0.21985564 -0.098623797 0.90500009 0.50620669 -0.019499782 -0.49545789 0.70859295
0.22138114 -0.093808278 0.90381896 0.50574887 -0.045674652 -0.48638588 0.7031638
-0.045898281 -0.081063963 0.90050006 0.52214611 -0.14175409 -0.51032674 0.74375004
0.21963648 -0.085536562 0.90916663 0.50471026 -0.033755139 -0.47133079 0.6913932
0.22224507 -0.085338458 0.90530407 0.50424099 -0.041771349 -0.46474928 0.68701947
0.21962401 -0.073385917 0.90810013 0.5018279 -0.082243383 -0.46535355 0.68931061
0.22136083 -0.07476005 0.90277207 0.50024474 -0.082410432 -0.44640678 0.67551112
0.21995687 -0.066796131 0.90541673 0.48503298 -0.17027313 -0.46004188 0.68984669
0.22226723 -0.06444408 0.90468758 0.46067375 -0.2409324 -0.50817084 0.72698444
0.22471893 -0.05940355 0.90485001 0.47892401 -0.1919686 -0.49760336 0.71681881
0.23198222 -0.052124843 0.90608341 0.48310319 -0.16359356 -0.54535604 0.74670255
0.22723386 -0.043904874 0.90649992 0.487914 -0.15383978 -0.51237708 0.72405595
0.23063208 -0.049556058 0.90400004 0.49180308 -0.12603906 -0.5450483 0.74487168
-0.043712381 -0.038001858 0.90575004 0.53395647 -0.030784082 -0.47380939 0.71452957
0.22729868 -0.036956251 0.90566188 0.47003692 -0.19791712 -0.56662577 0.76234549
0.23636352 -0.032839235 0.90634084 -0.2873854 0.37107286 -0.44774744 0.64866263
0.24226582 -0.032884851 0.90554172 -0.19862162 0.42276222 -0.46370637 0.65818089
0.25225621 -0.030142611 0.90912503 -0.33847779 0.33575353 -0.51226163 0.69979256
0.076529764 -0.020225653 0.90600002 0.50777161 -0.032144986 -0.54091239 0.74259782
0.24837795 -0.020130776 0.90175003 -0.2189775 0.39183435 -0.35086542 0.56972963
0.25355738 -0.028303958 0.90937507 -0.33911279 0.33601433 -0.5122751 0.70023489
0.076540321 -0.015934091 0.90612507 0.50766969 -0.032046784 -0.54092062 0.74252987
-0.39281902 0.039694019 0.90175003 0.53879207 0.087623112 -0.55312216 0.77712214
-0.40062737 0.049014013 0.90100002 0.54473871 0.0093551399 -0.53477246 0.76341951
-0.39555448 0.046050914 0.90292221 0.54401493 0.014038948 -0.54883879 0.77289933
-0.046153128 0.04844103 0.90550005 0.53531837 -0.039277293 -0.49003273 0.72680157
-0.40085915 0.053747181 0.90197927 0.54377162 0.0060395664 -0.53789514 0.76488906
-0.39712334 0.055175867 0.90498567 0.54178876 0.011055661 -0.55661196 0.77683598
-0.044926722 0.052119005 0.90550005 0.53499764 -0.039629456 -0.49607301 0.73067188
0.22292119 0.059606317 0.90750003 0.48666078 0.074843779 -0.50501961 0.70532626
-0.39587367 0.063115418 0.90494996 0.45947784 -0.25519496 -0.43824571 0.68432719
-0.044852298 0.061824352 0.90400004 0.53455782 -0.045871943 -0.49712041 0.73142672
0.22178921 0.064688981 0.90713471 0.48697278 0.07468605 -0.51391625 0.7119202
-0.37207311 0.070684083 0.90775007 -0.051408645 0.50053 -0.55321026 0.74780661
0.21952611 0.074175112 0.90533334 0.4915888 0.051617917 -0.5283792 0.72353894
