# .PCD v0.7 - Point Cloud Data file format
VERSION 0.7
FIELDS x y z rgb
SIZE 4 4 4 4
TYPE F F F U
COUNT 1 1 1 1
WIDTH 1052
HEIGHT 1
VIEWPOINT 0 0 0 1 0 0 0
POINTS 1052
DATA ascii
-0.45460388 -0.005332408 0.73256046 4292773901
-0.44539618 -0.0049262736 0.73504943 4292773901
-0.43499598 -0.0048725554 0.73580605 4292773901
-0.42473152 -0.0048536565 0.73636436 4292773901
-0.41496181 -0.0051963977 0.737854 4292773901
-0.40501937 -0.0048347469 0.73848224 4294901760
-0.39747775 -0.0053433985 0.7387591 4294901760
-0.13349876 -0.0051864493 0.73616111 4292773901
-0.12471239 -0.0049252133 0.73552221 4292773901
-0.11465172 -0.004964055 0.73525995 4292773901
-0.10504386 -0.0049797962 0.73772234 4292773901
-0.094856761 -0.0049710376 0.73617256 4292773901
-0.084715001 -0.0048437477 0.73350006 4292773901
-0.074786983 -0.0050517456 0.7333762 4292773901
-0.064696305 -0.0049522407 0.73334253 4292773901
-0.055070329 -0.005088422 0.73511976 4292773901
-0.049497306 -0.0082959021 0.73930001 4292773901
0.2281184 -0.0056534144 0.73902035 4281302055
0.23275523 -0.0056141298 0.73911226 4281302055
0.24813986 -0.0020747543 0.73964578 4281302055
0.25759354 -0.0056467876 0.73928213 4281302055
0.26458362 -0.0049800179 0.7375477 4281302055
0.27495411 -0.0050542969 0.73747933 4281302055
0.28474018 -0.0048903241 0.73570842 4281302055
0.2948902 -0.0049783811 0.73713344 4281302055
0.3045525 -0.0049759424 0.73637742 4281302055
0.31481299 -0.005224261 0.73527896 4281302055
0.32047912 -0.0094149159 0.73287505 4281302055
-0.49318802 0.0052066292 0.73502833 4292773901
-0.48508877 0.0048254007 0.73448527 4292773901
-0.47583467 0.0044915923 0.73256695 4292773901
-0.46308029 0.0042258985 0.73040003 4292773901
-0.45592511 0.0049243877 0.73054314 4292773901
-0.44464022 0.0042514838 0.73225278 4292773901
-0.43495688 0.0051159798 0.73337609 4292773901
-0.42510763 0.0049204794 0.73588598 4292773901
-0.41475558 0.0050738808 0.73694462 4292773901
-0.40472972 0.0049108625 0.73826176 4294901760
-0.39878526 0.0015140519 0.73967856 4294901760
-0.13420063 0.0053140461 0.73534977 4292773901
-0.12482126 0.004874093 0.73467451 4292773901
-0.11474919 0.0049926681 0.73588997 4292773901
-0.10503918 0.005003816 0.73770005 4292773901
-0.094982348 0.0050028306 0.73714256 4292773901
-0.084750488 0.0049870042 0.73501498 4292773901
-0.074801594 0.004988635 0.73506236 4292773901
-0.064792693 0.0049853008 0.73448241 4292773901
-0.055250958 0.0051028561 0.73549199 4292773901
0.22865032 0.0080231382 0.73965621 4281302055
0.2463868 0.0054894504 0.7392602 4281302055
0.25508103 0.005855592 0.73904753 4281302055
0.26511079 0.0050155907 0.73901486 4281302055
0.27490935 0.0050121862 0.73844743 4281302055
0.28487149 0.0050033797 0.73706377 4281302055
0.29500729 0.0050410577 0.73630071 4281302055
0.30492896 0.0049472386 0.73500687 4281302055
0.31466365 0.0050317412 0.73408705 4281302055
0.32014662 0.0064646751 0.73325002 4281302055
-0.49228773 0.014726639 0.73391652 4292773901
-0.48502588 0.014896657 0.73288339 4292773901
-0.47673002 0.015365554 0.73162919 4292773901
-0.46276385 0.015684342 0.73142207 4292773901
-0.4554913 0.015598094 0.73129278 4292773901
-0.44447541 0.015396267 0.73210955 4292773901
-0.43523437 0.01474046 0.73449749 4292773901
-0.42516077 0.01501797 0.73537844 4292773901
-0.41509685 0.014799308 0.73632199 4292773901
-0.40521351 0.015249666 0.73780203 4294901760
-0.39952666 0.018728273 0.73925006 4294901760
-0.14035454 0.01896878 0.73687506 4292773901
-0.13473433 0.01488151 0.73501658 4292773901
-0.12471455 0.014955705 0.73585761 4292773901
-0.11451617 0.014925809 0.73438501 4292773901
-0.104793 0.014956554 0.73595482 4292773901
-0.094846286 0.014958227 0.73610991 4292773901
-0.084711462 0.014932135 0.73469019 4292773901
-0.07490927 0.01496208 0.73613298 4292773901
-0.064911768 0.014956995 0.73582757 4292773901
-0.054940067 0.014955677 0.73581266 4292773901
-0.049421046 0.016708024 0.73925 4292773901
0.22764976 0.015239273 0.73884046 4281302055
0.23478895 0.016262751 0.73914379 4281302055
0.24537104 0.015060287 0.73960418 4281302055
0.25481164 0.015004147 0.73817754 4281302055
0.26516715 0.015023316 0.73917252 4281302055
0.27499142 0.015012191 0.73866743 4281302055
0.28543201 0.014799089 0.73916209 4281302055
0.29497445 0.014928609 0.7379635 4281302055
0.30497316 0.014962338 0.73630631 4281302055
0.31334445 0.014705658 0.73381811 4281302055
-0.49197206 0.024259653 0.73369026 4292773901
-0.48497233 0.024917934 0.7333588 4292773901
-0.47533652 0.024988566 0.73283178 4292773901
-0.46780014 0.024296679 0.73127145 4292773901
-0.45215756 0.024486985 0.73144233 4292773901
-0.44481975 0.024693366 0.73253083 4292773901
-0.43476814 0.024659138 0.73303854 4292773901
-0.42490885 0.024928324 0.73510075 4292773901
-0.41512036 0.025078172 0.73676819 4292773901
-0.40474412 0.024953948 0.73692 4294901760
-0.39955917 0.022027997 0.73912501 4294901760
-0.14004503 0.020419076 0.73525006 4292773901
-0.13520527 0.024814384 0.73409069 4292773901
-0.12508708 0.024852298 0.73485029 4292773901
-0.11469593 0.024963124 0.73484784 4292773901
-0.10481657 0.024929514 0.73611754 4292773901
-0.094664127 0.024881668 0.73469508 4292773901
-0.084668152 0.024866614 0.73430765 4292773901
-0.074804351 0.024893114 0.73511988 4292773901
-0.064914547 0.024917942 0.73585486 4292773901
-0.054909565 0.024902742 0.73536485 4292773901
-0.048294526 0.025924752 0.73828036 4292773901
0.2276659 0.025120737 0.73896301 4281302055
0.23492618 0.025009448 0.73852015 4281302055
0.24486579 0.02603001 0.73936409 4281302055
0.25494927 0.02501086 0.73857504 4281302055
0.26479915 0.024996715 0.73814499 4281302055
0.27476162 0.024994005 0.73805255 4281302055
0.2851831 0.025095597 0.73822677 4281302055
0.29464412 0.024839757 0.73692739 4281302055
0.30476242 0.024953371 0.73579431 4281302055
0.31316334 0.024797669 0.73447543 4281302055
-0.4836823 0.030527746 0.73042858 4292773901
-0.47480002 0.031078609 0.73084474 4292773901
-0.46796235 0.031255491 0.73047733 4292773901
-0.45127821 0.031420473 0.73181659 4292773901
-0.4451938 0.032648154 0.73203033 4292773901
-0.43503967 0.033453945 0.73173928 4292773901
-0.42455894 0.033079751 0.73220187 4292773901
-0.41510704 0.034438767 0.73417497 4292773901
-0.40416408 0.034468051 0.73363841 4294901760
-0.39920756 0.037198067 0.73244649 4294901760
-0.14009266 0.033371702 0.73550004 4292773901
-0.13500178 0.034860775 0.73430437 4292773901
-0.12534849 0.03477893 0.73373759 4292773901
-0.11510528 0.034657948 0.7321412 4292773901
-0.10498895 0.034694519 0.73320514 4292773901
-0.094892435 0.034796413 0.73414749 4292773901
-0.08479628 0.034834202 0.73364234 4292773901
-0.074681953 0.034807306 0.7333864 4292773901
-0.064780831 0.034809057 0.73434478 4292773901
-0.054769672 0.034765929 0.73348999 4292773901
-0.04767001 0.03480031 0.73766166 4292773901
0.22755402 0.034839656 0.73824102 4281302055
0.23504671 0.034857932 0.73815018 4281302055
0.24519838 0.035046849 0.73933274 4281302055
0.25506994 0.035028953 0.73892492 4281302055
0.2649667 0.035012897 0.73861468 4281302055
0.27487555 0.035000455 0.73835492 4281302055
0.28502861 0.034958448 0.73746824 4281302055
0.29483515 0.03501172 0.73673123 4281302055
0.30488765 0.034810673 0.73576075 4281302055
0.3127121 0.034281041 0.73454803 4281302055
-0.50206375 0.043447744 0.73750001 4294901760
-0.40146697 0.04598555 0.73818755 4294901760
-0.39873838 0.042319752 0.73096883 4294901760
-0.14003375 0.04992453 0.73000002 4294901760
-0.13554443 0.042581063 0.73122925 4292773901
-0.12491236 0.041912414 0.7311846 4292773901
-0.1142787 0.041543264 0.73035508 4292773901
-0.10462204 0.044316385 0.73032665 4292773901
-0.094336294 0.042678926 0.73072547 4292773901
-0.085449427 0.044704325 0.73181105 4292773901
-0.074977398 0.04460635 0.73195422 4292773901
-0.064708516 0.04470231 0.73352271 4294901760
-0.054818489 0.044745162 0.7341851 4294901760
-0.047393244 0.04541029 0.73816049 4292773901
0.22859524 0.043141812 0.73893481 4294901760
0.23485245 0.044496112 0.73828703 4281302055
0.24546564 0.044633824 0.7391361 4281302055
0.25488073 0.044998232 0.73837984 4281302055
0.26469466 0.044967413 0.73785502 4281302055
0.27466547 0.045037229 0.73736417 4281302055
0.2851176 0.044837996 0.73733193 4281302055
0.29535115 0.044917841 0.73705262 4281302055
0.30499756 0.044748574 0.73632127 4281302055
0.31192613 0.045181021 0.73631704 4281302055
-0.50147772 0.055726528 0.73481256 4294901760
-0.49705949 0.055921506 0.73087502 4294901760
-0.48446426 0.058971018 0.73807508 4294901760
-0.47650218 0.059038918 0.73714286 4294901760
-0.46745679 0.058840055 0.73025006 4294901760
-0.45444232 0.058704831 0.73318756 4294901760
-0.44566208 0.058890283 0.73637497 4294901760
-0.43807185 0.058863208 0.73362505 4294901760
-0.41355813 0.058728524 0.73248541 4294901760
-0.40275574 0.055426672 0.7355426 4294901760
-0.14338697 0.058333218 0.73112506 4294901760
-0.11197972 0.057862852 0.73039138 4292773901
-0.10538352 0.055551641 0.73068243 4292773901
-0.090598278 0.05430162 0.73000002 4292773901
-0.085219271 0.055042736 0.73114127 4292773901
-0.074997328 0.054955676 0.73174554 4292773901
-0.064908057 0.054831643 0.73198551 4292773901
-0.054587927 0.054780249 0.73216909 4292773901
-0.047291376 0.055140842 0.73730928 4294901760
0.24799617 0.051636629 0.73941672 4281302055
0.25602064 0.05388568 0.73892772 4281302055
0.2650474 0.055030007 0.73883742 4281302055
0.2745004 0.0548205 0.73706383 4281302055
0.28464353 0.054481007 0.73864442 4281302055
0.29490638 0.053402644 0.73818165 4281302055
0.30476433 0.053902511 0.73753774 4281302055
0.31148416 0.053269163 0.73788482 4281302055
-0.14144084 0.062544376 0.73422503 4294901760
-0.13628358 0.064425401 0.73549998 4294901760
-0.12393516 0.064141765 0.73057151 4294901760
-0.11466821 0.063017987 0.73108709 4294901760
-0.10519814 0.062931277 0.73182511 4294901760
-0.095128201 0.063437693 0.73092312 4294901760
-0.085453279 0.063139357 0.73226887 4294901760
-0.075352877 0.062967606 0.73179901 4294901760
-0.064889759 0.06325683 0.73140919 4294901760
-0.05476195 0.063856035 0.73216879 4294901760
-0.047385655 0.062511854 0.73554832 4294901760
0.25830653 0.064657107 0.73920465 4281302055
0.26515204 0.064938307 0.73774326 4281302055
0.27477574 0.064754397 0.73568237 4294901760
0.28304332 0.064702339 0.73792189 4281302055
0.26828915 0.07202106 0.73867506 4294901760
0.2746442 0.072841324 0.73684585 4294901760
0.28214228 0.072544023 0.73840004 4281302055
0.33738053 0.2036927 0.73701918 4294901760
0.34259915 0.20252296 0.73862505 4294901760
0.2009047 0.22876836 0.73300004 4294901760
0.33118373 0.23835883 0.7335 4294901760
0.3330811 0.24116607 0.73550004 4294901760
-0.54371393 -0.41313225 0.74830002 4292773901
-0.53453255 -0.41180316 0.74329168 4292773901
-0.52437693 -0.41199255 0.74384671 4292773901
-0.51503146 -0.41267693 0.74615908 4292773901
-0.50518143 -0.41247177 0.74578774 4292773901
-0.49396285 -0.41184837 0.74377322 4292773901
-0.48564374 -0.4125939 0.74565262 4292773901
-0.47388518 -0.41201329 0.74400592 4292773901
-0.46598607 -0.41255653 0.74641842 4292773901
-0.45451859 -0.41218162 0.74509996 4292773901
-0.44554919 -0.41216537 0.74541461 4292773901
-0.43545145 -0.41138861 0.74267435 4292773901
-0.42558679 -0.410898 0.74266124 4292773901
-0.41459817 -0.41140381 0.74527264 4292773901
-0.4062331 -0.41222438 0.74606109 4292773901
-0.39361611 -0.41202649 0.74407613 4292773901
-0.38510269 -0.41274998 0.74673003 4292773901
-0.37465826 -0.41191736 0.7448262 4292773901
-0.36511856 -0.41244802 0.74603504 4292773901
-0.35502124 -0.41222295 0.74525589 4292773901
-0.34544694 -0.4113425 0.74193186 4292773901
-0.33903816 -0.41094667 0.74031252 4292773901
-0.32306543 -0.41111955 0.74116671 4292773901
-0.31815621 -0.41120011 0.74094999 4292773901
-0.30327865 -0.41098732 0.74056679 4292773901
-0.29557201 -0.41128191 0.74162036 4292773901
-0.28420821 -0.41123521 0.74124992 4292773901
-0.27537042 -0.41150644 0.74200004 4292773901
-0.26174173 -0.41123724 0.7414822 4292773901
-0.2555266 -0.41162667 0.74286669 4292773901
-0.24332297 -0.41101605 0.74043751 4292773901
-0.23449285 -0.41119856 0.74187875 4292773901
-0.22480084 -0.41218692 0.74468011 4292773901
-0.21511963 -0.41215158 0.74520993 4292773901
-0.20517486 -0.41209972 0.74479908 4292773901
-0.19508713 -0.41191724 0.74387485 4292773901
-0.18486324 -0.41178542 0.74373871 4292773901
-0.17468816 -0.41201875 0.74497026 4292773901
-0.16759954 -0.41299754 0.74771678 4292773901
-0.14268233 -0.41393059 0.74873346 4292773901
-0.13737085 -0.41167527 0.74467391 4292773901
-0.12042661 -0.41427022 0.74950004 4292773901
0.23900315 -0.41294074 0.74938893 4281302055
0.24473478 -0.41286513 0.74766272 4294901760
0.25496438 -0.41250697 0.74510705 4281302055
0.26522934 -0.41190797 0.74393225 4281302055
0.27510965 -0.41220784 0.74439996 4281302055
0.28489661 -0.41228494 0.74466217 4281302055
0.29506087 -0.41228312 0.74537963 4281302055
0.30466473 -0.41190016 0.74354154 4281302055
0.31509471 -0.41188821 0.74348557 4281302055
0.32539132 -0.41255823 0.74646205 4281302055
0.33396703 -0.41249821 0.74573046 4281302055
0.35225248 -0.41110995 0.7421608 4281302055
0.36610967 -0.41191766 0.74424171 4281302055
0.37440187 -0.41204968 0.74423867 4281302055
0.38426667 -0.41185343 0.74318182 4281302055
0.3952238 -0.41236067 0.74513131 4281302055
0.4050267 -0.4125863 0.74563003 4281302055
0.41445622 -0.41171825 0.74287504 4281302055
0.42560923 -0.41227695 0.74543613 4281302055
0.43536615 -0.41237551 0.74547654 4281302055
0.44304353 -0.41130081 0.74185592 4281302055
0.45768225 -0.41137549 0.74171162 4281302055
0.4652243 -0.41153789 0.74234498 4281302055
0.47142997 -0.41146398 0.7414251 4281302055
-0.5425117 -0.40569669 0.74570376 4292773901
-0.53425437 -0.40488687 0.74281901 4292773901
-0.52514315 -0.40534839 0.7426905 4292773901
-0.51506335 -0.40500736 0.74424422 4292773901
-0.50483304 -0.40499514 0.74362892 4292773901
-0.4950735 -0.40564153 0.74424255 4292773901
-0.48468152 -0.40477604 0.74331057 4292773901
-0.47449762 -0.40473932 0.74301696 4292773901
-0.46522808 -0.40493584 0.74492317 4292773901
-0.45479819 -0.405247 0.74536371 4292773901
-0.44460186 -0.40490529 0.74613744 4292773901
-0.43476996 -0.40595418 0.74686635 4292773901
-0.42539871 -0.40603492 0.74670315 4292773901
-0.41469792 -0.40401235 0.74843466 4292773901
-0.40444043 -0.40505698 0.74706334 4292773901
-0.3955217 -0.40581897 0.74564129 4292773901
-0.38516089 -0.40514114 0.74648255 4292773901
-0.37447253 -0.40508258 0.74698216 4292773901
-0.36482859 -0.40630463 0.74809611 4292773901
-0.35498571 -0.40516305 0.74552381 4292773901
-0.34455317 -0.4048233 0.7436561 4292773901
-0.33542663 -0.40392727 0.74398667 4292773901
-0.32475293 -0.4043923 0.74300218 4292773901
-0.31542939 -0.40358818 0.74377233 4292773901
-0.30487409 -0.40499169 0.7434833 4292773901
-0.29474857 -0.40471661 0.74469036 4292773901
-0.28523704 -0.40506691 0.74497259 4292773901
-0.27491868 -0.40446299 0.74312168 4292773901
-0.26463494 -0.40407947 0.74252212 4292773901
-0.25500101 -0.40442967 0.74363768 4292773901
-0.24473879 -0.40431979 0.74382973 4292773901
-0.23512697 -0.40544468 0.74477619 4292773901
-0.2251098 -0.40461606 0.74540269 4292773901
-0.21511459 -0.40483525 0.74552035 4292773901
-0.20495236 -0.40464294 0.74577647 4292773901
-0.19485702 -0.4044427 0.74427116 4292773901
-0.18500496 -0.40498805 0.74593639 4292773901
-0.1749486 -0.40527385 0.74729705 4292773901
-0.16804264 -0.40523329 0.74825507 4292773901
-0.1412621 -0.40206832 0.74924999 4292773901
-0.13493066 -0.4055824 0.74552941 4292773901
-0.12415496 -0.40418735 0.74206352 4292773901
-0.11872522 -0.40336049 0.74894118 4292773901
0.22941121 -0.40330455 0.74953854 4281302055
0.23446694 -0.40480256 0.74927801 4281302055
0.24660605 -0.40529001 0.74784809 4294901760
0.25479996 -0.40471175 0.74412775 4281302055
0.26515311 -0.40528193 0.74474019 4281302055
0.27512124 -0.40517196 0.74443489 4281302055
0.28483212 -0.40494695 0.74346399 4281302055
0.29530182 -0.40485823 0.74560428 4281302055
0.30474451 -0.40494293 0.74400204 4281302055
0.31510842 -0.4052057 0.74481052 4281302055
0.32486126 -0.40519127 0.74613541 4281302055
0.33447573 -0.40498033 0.74478143 4281302055
0.34935814 -0.40307203 0.74150002 4281302055
0.35393858 -0.40591893 0.74336821 4281302055
0.36525035 -0.40491098 0.74342108 4281302055
0.37487093 -0.40497637 0.74404657 4281302055
0.38483053 -0.40517318 0.74339205 4281302055
0.39474446 -0.40458494 0.74401665 4281302055
0.40497506 -0.40470576 0.74300271 4281302055
0.41509083 -0.40531603 0.74291134 4281302055
0.425093 -0.40515485 0.74547482 4281302055
0.43511117 -0.40529785 0.74523103 4281302055
0.44473541 -0.40508705 0.74330139 4281302055
0.4555189 -0.40382516 0.74293178 4281302055
0.46462667 -0.40412492 0.7414068 4281302055
0.47384942 -0.40296304 0.74214566 4281302055
0.48455131 -0.40384024 0.74254996 4281302055
-0.54090875 -0.39885816 0.74237508 4292773901
-0.53470689 -0.39594588 0.74232972 4292773901
-0.52577019 -0.39618808 0.74128723 4292773901
-0.51448113 -0.3957485 0.74127567 4292773901
-0.50490475 -0.39482695 0.74080104 4292773901
-0.49607325 -0.39586198 0.74083215 4292773901
-0.48387903 -0.39582112 0.74061793 4292773901
-0.47491571 -0.39509034 0.74203193 4292773901
-0.46549127 -0.39509234 0.74417263 4292773901
-0.45483476 -0.39524034 0.74234635 4292773901
-0.44539201 -0.39488852 0.74489623 4292773901
-0.43502954 -0.39496017 0.74496073 4292773901
-0.42503294 -0.39476836 0.74534494 4292773901
-0.41555589 -0.39509949 0.74646795 4292773901
-0.40442821 -0.39450249 0.74373227 4292773901
-0.39532882 -0.39485025 0.7447781 4292773901
-0.38486272 -0.39473686 0.74439061 4292773901
-0.37436047 -0.39497456 0.74505991 4292773901
-0.36506078 -0.39447269 0.7474671 4292773901
-0.35457611 -0.39469948 0.74448866 4292773901
-0.34497833 -0.39502445 0.74551326 4292773901
-0.3351216 -0.39515737 0.74711818 4292773901
-0.32484573 -0.39539889 0.74739593 4292773901
-0.31506181 -0.39548263 0.74816281 4292773901
-0.30469754 -0.3954986 0.74738652 4292773901
-0.2950502 -0.39524472 0.74818152 4292773901
-0.28447828 -0.39464512 0.74892932 4292773901
-0.27495965 -0.39513406 0.7473737 4292773901
-0.26484445 -0.3953681 0.74732941 4292773901
-0.25471434 -0.39648119 0.74847126 4292773901
-0.24517022 -0.39533579 0.74842519 4292773901
-0.23489588 -0.39507595 0.74739397 4292773901
-0.22537279 -0.39548382 0.74859154 4292773901
-0.21511738 -0.39519414 0.7484535 4292773901
-0.20508559 -0.39546245 0.74885458 4292773901
-0.19478689 -0.39548928 0.74821061 4292773901
-0.18619438 -0.39451846 0.74913007 4292773901
-0.17448227 -0.39484346 0.74938178 4292773901
-0.1652004 -0.39477554 0.74917072 4292773901
-0.1564633 -0.39318016 0.74917072 4292773901
-0.14415465 -0.3941763 0.74837071 4292773901
-0.13493575 -0.39485744 0.74330163 4292773901
-0.12377177 -0.39544713 0.74189329 4292773901
-0.11871664 -0.39601666 0.74832821 4292773901
0.2293988 -0.39309999 0.74960423 4281302055
0.23564263 -0.39481068 0.74910474 4281302055
0.24526006 -0.39467576 0.74807465 4281302055
0.25449702 -0.3952437 0.74431461 4281302055
0.26508254 -0.39511809 0.74456823 4281302055
0.27479804 -0.39491224 0.7437526 4281302055
0.28471297 -0.39520752 0.74374485 4281302055
0.29490894 -0.39498681 0.74518061 4281302055
0.30511144 -0.39515105 0.74451715 4281302055
0.31498301 -0.39480501 0.74448854 4281302055
0.32429081 -0.39493594 0.74394733 4281302055
0.33546132 -0.39517742 0.74474263 4281302055
0.34024689 -0.39202172 0.74243754 4281302055
0.35649121 -0.39671016 0.74055552 4281302055
0.36524653 -0.39471045 0.74311155 4281302055
0.37520316 -0.39508909 0.74387276 4281302055
0.38523126 -0.39479867 0.74483806 4281302055
0.39462411 -0.39465955 0.7442174 4281302055
0.4050343 -0.39525172 0.74287742 4281302055
0.41502315 -0.39491031 0.74378479 4281302055
0.42516291 -0.39493805 0.74414295 4281302055
0.43485475 -0.39469954 0.74302411 4281302055
0.44501805 -0.39503664 0.74387807 4281302055
0.45536315 -0.39552042 0.74717075 4281302055
0.46471557 -0.39601454 0.7477321 4281302055
0.47502702 -0.39544913 0.74678439 4281302055
0.48482606 -0.39539182 0.7462188 4281302055
0.49085999 -0.39330405 0.74879551 4281302055
-0.53244352 -0.38848945 0.74035704 4292773901
-0.5293231 -0.38873112 0.74000001 4292773901
-0.51078141 -0.38472345 0.74000001 4292773901
-0.50592148 -0.38550705 0.7401523 4292773901
-0.49369922 -0.38230211 0.74040633 4292773901
-0.48425037 -0.38363189 0.7414062 4292773901
-0.47479808 -0.38501298 0.74271566 4292773901
-0.46492028 -0.38506913 0.74262142 4292773901
-0.45670041 -0.38536602 0.74063504 4292773901
-0.44559467 -0.38527811 0.74197632 4292773901
-0.43529531 -0.3848837 0.74283338 4292773901
-0.42461887 -0.38482994 0.74244422 4292773901
-0.4154143 -0.38540211 0.74412376 4292773901
-0.40460902 -0.38501671 0.74307919 4292773901
-0.39540091 -0.38505423 0.74432009 4292773901
-0.38473365 -0.38505739 0.7430743 4292773901
-0.37449214 -0.38475481 0.74282223 4292773901
-0.3652744 -0.38469809 0.74442899 4292773901
-0.35494888 -0.38491347 0.74424285 4292773901
-0.34535247 -0.38498393 0.74503767 4292773901
-0.33470494 -0.38465413 0.74425298 4292773901
-0.32515788 -0.38495648 0.74542785 4292773901
-0.31482509 -0.38491288 0.74534774 4292773901
-0.30481791 -0.38524762 0.74598175 4292773901
-0.29536343 -0.38506845 0.74769396 4292773901
-0.28516677 -0.38490796 0.74716127 4292773901
-0.27496666 -0.38476545 0.74675572 4292773901
-0.26504481 -0.38487867 0.74630594 4292773901
-0.25506344 -0.38474652 0.74693531 4292773901
-0.24503343 -0.38466537 0.74659252 4292773901
-0.23488784 -0.38476846 0.74750763 4292773901
-0.22513296 -0.38499126 0.74830735 4292773901
-0.21518685 -0.38482979 0.74919134 4292773901
-0.20492624 -0.38501579 0.74844432 4292773901
-0.19472583 -0.38528758 0.74769539 4292773901
-0.18481135 -0.38475901 0.7486757 4292773901
-0.17498814 -0.38512328 0.74869716 4292773901
-0.16505663 -0.38470787 0.74829829 4292773901
-0.15518123 -0.38494155 0.74821252 4292773901
-0.14561671 -0.38521051 0.74791265 4292773901
-0.13665618 -0.3852655 0.74239534 4292773901
-0.1212666 -0.38621768 0.74522585 4292773901
-0.1175634 -0.38310716 0.74864852 4292773901
0.22969766 -0.38417318 0.74950022 4281302055
0.23485427 -0.38477397 0.74799508 4281302055
0.24537162 -0.38498327 0.74810469 4281302055
0.25462463 -0.38478211 0.7438395 4281302055
0.26495796 -0.38489467 0.74420494 4281302055
0.27527454 -0.38527828 0.74453855 4281302055
0.28495473 -0.38497439 0.74338537 4281302055
0.29510692 -0.38454598 0.74299163 4281302055
0.3052586 -0.38516346 0.74395752 4281302055
0.31516841 -0.38499618 0.74417275 4281302055
0.32468525 -0.38516247 0.74255633 4281302055
0.33447826 -0.38504034 0.74235064 4281302055
0.34004638 -0.38927943 0.74200004 4281302055
0.35791126 -0.38359895 0.74137962 4281302055
0.36525914 -0.38505831 0.74333715 4281302055
0.37522703 -0.3849692 0.74481773 4281302055
0.38515744 -0.38532057 0.74599999 4281302055
0.3955076 -0.38517815 0.74485117 4281302055
0.40494996 -0.38495484 0.74398696 4281302055
0.41480476 -0.384644 0.74445432 4281302055
0.42513114 -0.3852419 0.74401748 4281302055
0.43488923 -0.38506582 0.74290794 4281302055
0.44517711 -0.38523507 0.74485445 4281302055
0.45459199 -0.38505638 0.74498719 4281302055
0.46525413 -0.3850584 0.74717605 4281302055
0.47496545 -0.38528112 0.74704415 4281302055
0.48445338 -0.38488036 0.74621189 4281302055
0.49069703 -0.3893117 0.74850005 4281302055
-0.54165596 -0.37286234 0.74790913 4292773901
-0.53442854 -0.37316978 0.74669093 4292773901
-0.52480131 -0.37378809 0.7440697 4292773901
-0.51512676 -0.37570378 0.74398422 4292773901
-0.50474727 -0.37432745 0.74406534 4292773901
-0.49472919 -0.37475497 0.74376047 4292773901
-0.48519403 -0.37539956 0.74457979 4292773901
-0.4749833 -0.37464249 0.744156 4292773901
-0.46490854 -0.37474674 0.74346614 4292773901
-0.45509455 -0.37420955 0.74377131 4292773901
-0.44442469 -0.37455022 0.74233609 4292773901
-0.43534493 -0.3744511 0.74356776 4292773901
-0.42512837 -0.37523305 0.74242949 4292773901
-0.4147613 -0.37427548 0.74273479 4292773901
-0.40521145 -0.37497944 0.7444669 4292773901
-0.39489982 -0.3743988 0.74471319 4292773901
-0.38467216 -0.37452143 0.74350017 4292773901
-0.3748678 -0.37428844 0.74363458 4292773901
-0.36503997 -0.37459391 0.74540174 4292773901
-0.35509539 -0.37471846 0.74580628 4292773901
-0.34510878 -0.3748706 0.74618733 4292773901
-0.33504713 -0.37480605 0.74555665 4292773901
-0.32493955 -0.37485543 0.74505836 4292773901
-0.31508622 -0.37450361 0.7450276 4292773901
-0.30471829 -0.37472138 0.74386418 4292773901
-0.29555252 -0.37481812 0.74702638 4292773901
-0.28502756 -0.37486237 0.7456153 4292773901
-0.27512565 -0.37467217 0.74481612 4292773901
-0.26507968 -0.37437528 0.7446695 4292773901
-0.25502646 -0.37494349 0.74569863 4292773901
-0.24459676 -0.37480205 0.74630576 4292773901
-0.2350512 -0.37467176 0.7471841 4292773901
-0.22478922 -0.37482134 0.74754858 4292773901
-0.21520318 -0.3750487 0.74896896 4292773901
-0.20511593 -0.37492874 0.74750888 4292773901
-0.19505185 -0.3747066 0.74620599 4292773901
-0.18518011 -0.37501863 0.74719262 4292773901
-0.17502797 -0.37475619 0.74807 4292773901
-0.1653434 -0.37502772 0.74855566 4292773901
-0.15529035 -0.37507108 0.74873489 4292773901
-0.14525913 -0.37484688 0.74660659 4292773901
-0.13746268 -0.37456304 0.74121004 4292773901
-0.1221805 -0.37456784 0.74402374 4292773901
-0.11746412 -0.37571242 0.74848151 4292773901
-0.10623576 -0.37239489 0.7496472 4292773901
0.22943144 -0.3762334 0.74975008 4281302055
0.23591454 -0.37787285 0.74932367 4281302055
0.24627459 -0.37479013 0.74846351 4281302055
0.25472912 -0.3749615 0.74443066 4281302055
0.26492515 -0.37475193 0.74367678 4281302055
0.2750254 -0.375128 0.74281573 4281302055
0.28473508 -0.37502971 0.74245721 4281302055
0.29488936 -0.37505952 0.74368507 4281302055
0.30464247 -0.37475744 0.74247956 4281302055
0.31514177 -0.37501535 0.7418806 4281302055
0.32503608 -0.37523445 0.74203938 4281302055
0.33448672 -0.37485611 0.7422173 4281302055
0.35601723 -0.37533057 0.7420513 4281302055
0.36483783 -0.37518379 0.74274445 4281302055
0.3751857 -0.37484449 0.74413562 4281302055
0.38490087 -0.37476918 0.74230599 4281302055
0.3952494 -0.37496325 0.74455249 4281302055
0.40457124 -0.37543961 0.7446959 4281302055
0.41525486 -0.37521008 0.74432987 4281302055
0.42463258 -0.37509155 0.74259192 4281302055
0.4351815 -0.37520254 0.74384111 4281302055
0.44537187 -0.37499395 0.7437942 4281302055
0.45418665 -0.37468076 0.74214321 4281302055
0.46584603 -0.37455148 0.74534678 4281302055
0.4747121 -0.37434399 0.74423867 4281302055
0.48470813 -0.37516683 0.74473631 4281302055
-0.54258507 -0.36352628 0.74745834 4292773901
-0.53439778 -0.36377719 0.74801856 4292773901
-0.5271275 -0.36368772 0.74830264 4292773901
-0.51429641 -0.36186934 0.74753577 4292773901
-0.50342649 -0.36499006 0.74814099 4292773901
-0.49636406 -0.36316392 0.74785352 4292773901
-0.48385629 -0.36177671 0.74640006 4292773901
-0.47561577 -0.36206412 0.74787009 4292773901
-0.46418262 -0.36107659 0.74809378 4292773901
-0.44440225 -0.3698321 0.74853575 4292773901
-0.42558637 -0.36094543 0.74932146 4292773901
-0.41676739 -0.36551312 0.74625003 4292773901
-0.39769098 -0.36976162 0.74839294 4292773901
-0.3815476 -0.36936784 0.74821883 4292773901
-0.37617809 -0.36943114 0.748375 4292773901
-0.36651725 -0.36959907 0.74815392 4292773901
-0.34278378 -0.36992368 0.74960005 4292773901
-0.3323316 -0.36946097 0.74924999 4292773901
-0.32437241 -0.3691467 0.74737507 4292773901
-0.31469601 -0.36945316 0.74823749 4292773901
-0.30416915 -0.36829624 0.74598002 4292773901
-0.29432493 -0.36911529 0.74845248 4292773901
-0.28481522 -0.3684442 0.7471199 4292773901
-0.27423307 -0.36827949 0.74648958 4292773901
-0.26500133 -0.36817831 0.7469638 4292773901
-0.25516546 -0.36782408 0.74691278 4292773901
-0.24572328 -0.36819091 0.74768376 4292773901
-0.23488669 -0.36893314 0.74858016 4292773901
-0.22540621 -0.36863345 0.74826342 4292773901
-0.21531625 -0.36949492 0.74941677 4292773901
-0.20431335 -0.36669555 0.74774206 4292773901
-0.19518986 -0.3680259 0.74799991 4292773901
-0.18448718 -0.36696425 0.74754411 4292773901
-0.1765262 -0.36742747 0.74818879 4292773901
-0.16418949 -0.36844963 0.74926621 4292773901
-0.15425594 -0.36917722 0.74945843 4292773901
-0.14525397 -0.36555958 0.74671251 4292773901
-0.13719802 -0.36743489 0.74113631 4292773901
-0.12365198 -0.36478877 0.74427491 4292773901
-0.11483704 -0.36670813 0.74945831 4292773901
-0.1068823 -0.36700678 0.74943608 4292773901
0.22809629 -0.36469448 0.74867773 4281302055
0.2352621 -0.36488006 0.74901032 4281302055
0.2454125 -0.36505711 0.74777341 4281302055
0.25478101 -0.36486426 0.74357647 4281302055
0.26526123 -0.36538026 0.74314839 4281302055
0.27475777 -0.36486542 0.74163246 4281302055
0.28491482 -0.36484545 0.74236643 4281302055
0.29500359 -0.36499617 0.74335986 4281302055
0.30506426 -0.36523089 0.74258482 4281302055
0.31416994 -0.36416227 0.74070573 4281302055
0.32461551 -0.36482 0.74118078 4281302055
0.33492637 -0.36490408 0.7418372 4281302055
0.3586657 -0.3691926 0.74050003 4281302055
0.36567184 -0.36563382 0.74181235 4281302055
0.37557846 -0.3652184 0.74358422 4281302055
0.38437718 -0.36501724 0.74225473 4281302055
0.3949109 -0.36505771 0.74355376 4281302055
0.40463328 -0.36503816 0.74188733 4281302055
0.41483074 -0.3649841 0.74219072 4281302055
0.42505711 -0.36499649 0.74234545 4281302055
0.43492779 -0.36462972 0.74245828 4281302055
0.44500554 -0.36487594 0.74285465 4281302055
0.4544706 -0.36518955 0.74323994 4281302055
0.46493614 -0.36516604 0.74549681 4281302055
0.47476232 -0.36550921 0.74562126 4281302055
0.48491836 -0.36488798 0.74594146 4281302055
-0.54093927 -0.35827547 0.74228573 4292773901
-0.53515619 -0.35775942 0.74205005 4292773901
-0.52515554 -0.35629782 0.74208337 4292773901
-0.51415944 -0.35524672 0.74254596 4292773901
-0.50521636 -0.35532188 0.74237263 4292773901
-0.49546832 -0.35551369 0.74244124 4292773901
-0.48375583 -0.35478067 0.74165761 4292773901
-0.47535241 -0.35481727 0.74311811 4292773901
-0.46460986 -0.35482714 0.74327701 4292773901
-0.45558476 -0.35474989 0.74549258 4292773901
-0.44491798 -0.35459465 0.7451666 4292773901
-0.43480709 -0.3546209 0.74522114 4292773901
-0.42497855 -0.35477278 0.74526107 4292773901
-0.41510993 -0.35453027 0.74565053 4292773901
-0.40514404 -0.35440391 0.74693942 4292773901
-0.39492866 -0.35394746 0.74630082 4292773901
-0.38469616 -0.35362858 0.74634826 4292773901
-0.37531224 -0.35337713 0.74787068 4292773901
-0.36518276 -0.35349435 0.74765211 4292773901
-0.35509527 -0.35325223 0.74747568 4292773901
-0.34442335 -0.35347426 0.74599558 4292773901
-0.33542794 -0.35278839 0.74774456 4292773901
-0.32463333 -0.35248533 0.7473889 4292773901
-0.31516725 -0.35277352 0.74705344 4292773901
-0.30489984 -0.35260856 0.74792832 4292773901
-0.29523817 -0.35201725 0.74875015 4292773901
-0.28525376 -0.35278171 0.74839878 4292773901
-0.2743777 -0.35182405 0.74893785 4292773901
-0.26568544 -0.35085911 0.74920005 4292773901
-0.25420496 -0.35198963 0.74915856 4292773901
-0.24780686 -0.35105345 0.74927777 4292773901
-0.14450094 -0.35733816 0.74678856 4292773901
-0.12735347 -0.35515323 0.74170667 4292773901
0.22870071 -0.3568413 0.74888891 4281302055
0.23520093 -0.35484001 0.7484479 4281302055
0.24544412 -0.35470241 0.74745423 4281302055
0.25482756 -0.35494944 0.74237305 4281302055
0.26481831 -0.35474131 0.74125004 4281302055
0.27504608 -0.35505193 0.74229795 4281302055
0.28516436 -0.35512963 0.74225569 4281302055
0.29528403 -0.35509884 0.74226743 4281302055
0.30502415 -0.35473889 0.74181235 4281302055
0.31506461 -0.35500142 0.74086756 4281302055
0.32490876 -0.35483897 0.74138772 4281302055
0.33408856 -0.35576972 0.74109709 4281302055
0.36684331 -0.35402754 0.74097919 4281302055
0.37477607 -0.35499609 0.74250323 4281302055
0.38525125 -0.35542166 0.74371886 4281302055
0.39471772 -0.35513699 0.74139231 4281302055
0.40509748 -0.35543099 0.7427603 4281302055
0.41516098 -0.35489202 0.74242574 4281302055
0.42495817 -0.355068 0.74185723 4281302055
0.43534121 -0.35517904 0.7430647 4281302055
0.44489494 -0.3550064 0.74295092 4281302055
0.45502084 -0.35494038 0.74338454 4281302055
0.46497828 -0.35498419 0.7438671 4281302055
0.47489059 -0.35527584 0.74529433 4281302055
0.48517147 -0.35533616 0.74644476 4281302055
-0.51130158 -0.34633708 0.74088633 4292773901
-0.50556535 -0.34469846 0.74146104 4292773901
-0.49854171 -0.34314868 0.74064696 4292773901
-0.48233417 -0.3473404 0.74089998 4292773901
-0.47579494 -0.34669328 0.74084032 4292773901
-0.46431887 -0.34570006 0.74120677 4292773901
-0.45527315 -0.34499338 0.74233598 4292773901
-0.44576249 -0.34545907 0.74102962 4292773901
-0.43502286 -0.34528953 0.74201357 4292773901
-0.42503449 -0.34520027 0.7416867 4292773901
-0.41483164 -0.34438735 0.74143589 4292773901
-0.4056015 -0.34489322 0.74358344 4292773901
-0.39479575 -0.3449468 0.74267191 4292773901
-0.38505679 -0.34489444 0.74386823 4292773901
-0.37557691 -0.34499457 0.74554062 4292773901
-0.36486319 -0.34517443 0.74503005 4292773901
-0.35526085 -0.34497592 0.74462777 4292773901
-0.34492597 -0.34495148 0.74366373 4292773901
-0.33523837 -0.34501073 0.74455321 4292773901
-0.32517061 -0.34493878 0.74612069 4292773901
-0.31477228 -0.34475201 0.7451089 4292773901
-0.30535871 -0.34503034 0.7460081 4292773901
-0.29512939 -0.34509704 0.74621999 4292773901
-0.2850709 -0.34506339 0.74674457 4292773901
-0.27530962 -0.34492412 0.74793899 4292773901
-0.26526284 -0.34479013 0.74735665 4292773901
-0.25483194 -0.3446452 0.74584407 4292773901
-0.24511936 -0.34456772 0.74755299 4292773901
-0.23494607 -0.34399316 0.74816561 4292773901
-0.22517943 -0.34443739 0.74894166 4292773901
-0.21573123 -0.34404001 0.74931562 4292773901
-0.20451595 -0.34337917 0.74918652 4292773901
-0.1988225 -0.34249997 0.74955368 4292773901
-0.17383014 -0.34355319 0.74914449 4292773901
-0.16510352 -0.34302971 0.74901491 4292773901
-0.15551618 -0.34209326 0.74924427 4292773901
-0.14848608 -0.34152713 0.74920005 4292773901
-0.12570143 -0.34494302 0.74490392 4292773901
-0.11300111 -0.34209031 0.74917519 4292773901
-0.10929673 -0.3410669 0.74975002 4292773901
0.24895722 -0.34845221 0.74886364 4281302055
0.25455871 -0.34484825 0.74323463 4281302055
0.26349989 -0.34489369 0.74058336 4281302055
0.27548933 -0.34449399 0.7410959 4281302055
0.2848379 -0.34454444 0.74085909 4281302055
0.2950896 -0.34463635 0.74229836 4281302055
0.30485573 -0.34503108 0.74144989 4281302055
0.3149893 -0.34466085 0.74127346 4281302055
0.32523814 -0.34467793 0.74124998 4281302055
0.33262089 -0.34220782 0.74242711 4281302055
0.35935688 -0.34081158 0.74037504 4281302055
0.36455074 -0.34438923 0.74082649 4281302055
0.37591156 -0.34469867 0.74078584 4281302055
0.38527998 -0.34452027 0.74120134 4281302055
0.3947795 -0.34464833 0.74113536 4281302055
0.40510106 -0.34453309 0.74395114 4281302055
0.41532972 -0.34457916 0.74442905 4281302055
0.42433593 -0.34408385 0.74252683 4281302055
0.43477887 -0.34506589 0.74299741 4281302055
0.44484484 -0.34426981 0.74450231 4281302055
0.45496681 -0.34477469 0.74455535 4281302055
0.46531487 -0.34482899 0.74565154 4281302055
0.47498202 -0.34397244 0.74516839 4281302055
0.48356014 -0.34446305 0.74347228 4281302055
-0.51122195 -0.33316708 0.74009377 4292773901
-0.50586241 -0.33696583 0.74056107 4292773901
-0.49856541 -0.33829787 0.74035722 4292773901
-0.48138639 -0.33184442 0.74185532 4292773901
-0.475849 -0.33387318 0.7421363 4292773901
-0.4676457 -0.33246544 0.74046677 4292773901
-0.45437169 -0.33520806 0.74128342 4292773901
-0.44539914 -0.33453062 0.74062967 4292773901
-0.43448249 -0.33546087 0.74063843 4292773901
-0.42509517 -0.33441702 0.74150527 4292773901
-0.41527432 -0.33521527 0.74169773 4292773901
-0.40562817 -0.33506027 0.74261993 4292773901
-0.39406842 -0.33511612 0.7407102 4292773901
-0.38499323 -0.33484229 0.74243087 4292773901
-0.37513232 -0.33452898 0.74306446 4292773901
-0.36491489 -0.33483839 0.74310243 4292773901
-0.3547864 -0.33514389 0.74425268 4292773901
-0.34469011 -0.33509037 0.74373502 4292773901
-0.33505425 -0.33504951 0.74421835 4292773901
-0.32530364 -0.33502078 0.74508017 4292773901
-0.31522176 -0.33516067 0.74564493 4292773901
-0.30519751 -0.33524212 0.74582505 4292773901
-0.2949909 -0.33511633 0.74544162 4292773901
-0.28494036 -0.33501232 0.74552077 4292773901
-0.27516857 -0.33507651 0.74657518 4292773901
-0.26497418 -0.33487913 0.7460168 4292773901
-0.25502107 -0.33499157 0.74557263 4292773901
-0.24474955 -0.33487606 0.74672621 4292773901
-0.23517618 -0.33521298 0.74801522 4292773901
-0.22525674 -0.33504894 0.74829531 4292773901
-0.21514352 -0.33506587 0.74881399 4292773901
-0.20495446 -0.33513522 0.74872273 4292773901
-0.19688594 -0.3340672 0.74935007 4292773901
-0.18450829 -0.33422223 0.74965769 4292773901
-0.17486884 -0.33501285 0.74840295 4292773901
-0.16542891 -0.33527264 0.74835461 4292773901
-0.15531026 -0.33451408 0.74861336 4292773901
-0.14671303 -0.33474261 0.74625444 4292773901
-0.12628531 -0.33542618 0.74625307 4292773901
-0.11345758 -0.33822638 0.74948865 4292773901
-0.10929673 -0.33954424 0.74975002 4292773901
-0.084412351 -0.33119828 0.74970007 4292773901
0.25715053 -0.33765635 0.74626362 4281302055
0.26465026 -0.33755833 0.74507672 4281302055
0.27476221 -0.33784673 0.7450968 4281302055
0.28432754 -0.33739436 0.74552798 4281302055
0.29487565 -0.33669269 0.74605143 4281302055
0.30521709 -0.33738855 0.74386406 4281302055
0.31621495 -0.33716467 0.74644607 4281302055
0.32425851 -0.33695787 0.74688512 4281302055
0.33424416 -0.33640033 0.74780744 4281302055
0.34186217 -0.33461812 0.74697858 4281302055
0.35891962 -0.336721 0.74273211 4281302055
0.36528683 -0.3359696 0.74573982 4281302055
0.37496334 -0.33647263 0.74613136 4281302055
0.38517833 -0.33629799 0.74740088 4281302055
0.39453217 -0.33665845 0.74733758 4281302055
0.40449291 -0.33700916 0.74850702 4281302055
0.41348886 -0.33298805 0.74870002 4281302055
0.42656782 -0.33593842 0.74771363 4281302055
0.43400785 -0.3341659 0.7480073 4281302055
0.44607377 -0.33632323 0.74773288 4281302055
0.4520835 -0.33646214 0.74779171 4281302055
0.46621707 -0.33144474 0.74893755 4281302055
0.47603533 -0.3332915 0.74893337 4281302055
0.48495102 -0.33715051 0.74757218 4281302055
0.49092832 -0.33500266 0.74900001 4281302055
-0.52773166 -0.32286209 0.74006808 4292773901
-0.49229121 -0.32284737 0.74012482 4292773901
-0.48467073 -0.32468185 0.74087387 4292773901
-0.47513774 -0.32480764 0.74224663 4292773901
-0.46555442 -0.32430959 0.74094111 4292773901
-0.45447442 -0.32452202 0.74178606 4292773901
-0.44446182 -0.32475442 0.74105793 4292773901
-0.43470088 -0.32482013 0.741081 4292773901
-0.42528602 -0.3251192 0.74217862 4292773901
-0.41496691 -0.32496098 0.74109846 4292773901
-0.40512791 -0.32477504 0.74052429 4292773901
-0.3950398 -0.32480076 0.74120855 4292773901
-0.38521016 -0.32497475 0.74322486 4292773901
-0.37492368 -0.32486427 0.74276376 4292773901
-0.36519402 -0.32516104 0.74355471 4292773901
-0.35503319 -0.32526004 0.74338377 4292773901
-0.34483477 -0.32499954 0.74304068 4292773901
-0.33506554 -0.32467183 0.74360812 4292773901
-0.32474265 -0.32469097 0.74429202 4292773901
-0.31511056 -0.32517287 0.74571109 4292773901
-0.30498981 -0.32518214 0.74558759 4292773901
-0.29504997 -0.3250919 0.74570465 4292773901
-0.28479394 -0.3249115 0.74504185 4292773901
-0.27478302 -0.32501593 0.74553245 4292773901
-0.26497641 -0.32526898 0.74621707 4292773901
-0.25520226 -0.32510054 0.74769026 4292773901
-0.24524015 -0.32510272 0.74744487 4292773901
-0.23495266 -0.32528386 0.74730283 4292773901
-0.22488497 -0.32485756 0.74748766 4292773901
-0.21472703 -0.32512257 0.74765903 4292773901
-0.20466648 -0.32490239 0.74759269 4292773901
-0.19507673 -0.32505089 0.74915153 4292773901
-0.18469198 -0.32488233 0.74870825 4292773901
-0.17478222 -0.32512453 0.7488004 4292773901
-0.1652046 -0.32540107 0.7488001 4292773901
-0.15531223 -0.3251017 0.74908763 4292773901
-0.14830318 -0.3257001 0.74741668 4292773901
-0.13001162 -0.32229835 0.74625003 4292773901
-0.1262967 -0.32488906 0.74803352 4292773901
-0.11275086 -0.32233328 0.74936467 4292773901
-0.10462327 -0.32310513 0.74950582 4292773901
-0.085105158 -0.32706603 0.7497046 4292773901
-0.041564856 -0.32370475 0.7495963 4292773901
-0.039230045 -0.32787037 0.74975002 4292773901
0.25481665 -0.32440266 0.74530375 4281302055
0.2651839 -0.32441267 0.74543321 4281302055
0.27479863 -0.32473472 0.74563593 4281302055
0.28500718 -0.32449311 0.74671519 4281302055
0.29498729 -0.32493296 0.74586809 4281302055
0.30509982 -0.3245818 0.74562156 4281302055
0.3149327 -0.32467487 0.74597526 4281302055
0.32487494 -0.32505795 0.74566156 4281302055
0.33474505 -0.32499737 0.74432778 4281302055
0.34086335 -0.32883829 0.74050003 4281302055
0.35959959 -0.32198355 0.74087501 4281302055
0.36515781 -0.32480288 0.74332446 4281302055
0.37509963 -0.32473817 0.7452631 4281302055
0.38449097 -0.32457879 0.74354339 4281302055
0.39483246 -0.32473868 0.74396384 4281302055
0.4052662 -0.32466 0.74369305 4281302055
0.41513327 -0.32444763 0.74252725 4281302055
0.42450947 -0.32466662 0.74246377 4281302055
0.43505281 -0.32444519 0.74421573 4281302055
0.44490284 -0.32445407 0.74433756 4281302055
0.4551996 -0.32494774 0.74462634 4281302055
0.46490955 -0.3245596 0.74475348 4281302055
0.47505382 -0.3247377 0.74484134 4281302055
0.48480937 -0.32490775 0.74500358 4281302055
0.49021503 -0.32930645 0.74725002 4281302055
-0.5281316 -0.31825468 0.74003571 4292773901
-0.50179881 -0.31110609 0.74005562 4292773901
-0.49563828 -0.31699684 0.74009466 4292773901
-0.48201391 -0.31862751 0.74045825 4292773901
-0.47643653 -0.31803784 0.74032998 4292773901
-0.46527198 -0.31829387 0.7401799 4292773901
-0.45368358 -0.31590307 0.74135071 4292773901
-0.44480771 -0.31521526 0.74153835 4292773901
-0.43466452 -0.31489736 0.74080461 4292773901
-0.42497405 -0.31558964 0.74083829 4292773901
-0.41510057 -0.31492999 0.74218774 4292773901
-0.40466461 -0.31548268 0.74208063 4292773901
-0.3952046 -0.31514451 0.74340826 4292773901
-0.38478053 -0.31505686 0.74316686 4292773901
-0.37499267 -0.31478584 0.74255663 4292773901
-0.36492318 -0.31514612 0.74327374 4292773901
-0.3548384 -0.31512445 0.744039 4292773901
-0.34551305 -0.31519115 0.74363869 4292773901
-0.3351697 -0.31481862 0.74309343 4292773901
-0.32503113 -0.31503442 0.74312103 4292773901
-0.31510308 -0.31464764 0.74376416 4292773901
-0.30516213 -0.31477788 0.7436105 4292773901
-0.29494816 -0.31482077 0.74404532 4292773901
-0.2850118 -0.31482175 0.74423826 4292773901
-0.27469432 -0.31468919 0.74445641 4292773901
-0.26482677 -0.3150894 0.74592447 4292773901
-0.25489795 -0.31479347 0.74628818 4292773901
-0.24479914 -0.31471729 0.74687374 4292773901
-0.23470718 -0.31499714 0.74657226 4292773901
-0.22530738 -0.31497973 0.74742514 4292773901
-0.21509354 -0.31496385 0.74629468 4292773901
-0.20486547 -0.31489205 0.74667674 4292773901
-0.19457662 -0.31484956 0.74806511 4292773901
-0.18489917 -0.31500375 0.74754214 4292773901
-0.17532401 -0.31497416 0.74850279 4292773901
-0.16522734 -0.31482464 0.74856746 4292773901
-0.15515856 -0.31492648 0.74748707 4292773901
-0.14909637 -0.31673196 0.74717504 4292773901
-0.12612098 -0.31468093 0.74719185 4292773901
-0.1118449 -0.31549925 0.74919337 4292773901
-0.10500357 -0.31487113 0.74880356 4292773901
-0.097033441 -0.31348446 0.74936503 4292773901
-0.08328791 -0.31412339 0.74958944 4292773901
-0.073393025 -0.31399363 0.7495923 4292773901
-0.069434151 -0.31084138 0.74968755 4292773901
-0.042338371 -0.31740168 0.74946171 4292773901
0.24984215 -0.31172001 0.74875003 4281302055
0.25481817 -0.3152948 0.74559379 4281302055
0.26502609 -0.31506583 0.74454105 4281302055
0.2748394 -0.31486017 0.74380386 4281302055
0.28528118 -0.31474355 0.74455076 4281302055
0.2952204 -0.31506693 0.74444205 4281302055
0.30457246 -0.31493419 0.74317497 4281302055
0.31506011 -0.31457925 0.74339288 4281302055
0.32496232 -0.31491384 0.74312747 4281302055
0.33508408 -0.31482616 0.74260873 4281302055
0.34039062 -0.31182042 0.7405625 4281302055
0.35917488 -0.31909806 0.74000001 4281302055
0.36539289 -0.31488562 0.7420854 4281302055
0.37510312 -0.3147957 0.7441867 4281302055
0.38479573 -0.31510058 0.74293357 4281302055
0.39493719 -0.31515017 0.74252927 4281302055
0.40489936 -0.3151567 0.74228066 4281302055
0.41501921 -0.31471211 0.74149591 4281302055
0.42485657 -0.31485084 0.74180537 4281302055
0.43503213 -0.31544769 0.74423951 4281302055
0.44492176 -0.31521735 0.74420238 4281302055
0.45526192 -0.31498659 0.74497592 4281302055
0.46480751 -0.31489629 0.74329519 4281302055
0.47493613 -0.3151761 0.743173 4281302055
0.48432648 -0.31523728 0.7448405 4281302055
-0.50176114 -0.3090789 0.74000001 4292773901
-0.49321839 -0.30392191 0.74030668 4292773901
-0.4898003 -0.3031083 0.74010003 4292773901
-0.45110679 -0.30574962 0.74023682 4292773901
-0.44608867 -0.305237 0.74069279 4292773901
-0.43335193 -0.30810562 0.74029756 4292773901
-0.42692745 -0.30637062 0.74023336 4292773901
-0.41513532 -0.30481789 0.7413376 4292773901
-0.40470529 -0.30499408 0.74107724 4292773901
-0.39515758 -0.30500624 0.74224985 4292773901
-0.38492358 -0.30485427 0.74219197 4292773901
-0.37490046 -0.30497363 0.7423256 4292773901
-0.36494794 -0.30490977 0.74261624 4292773901
-0.35473683 -0.30507135 0.74289131 4292773901
-0.34513602 -0.30494708 0.74344355 4292773901
-0.33503598 -0.30522022 0.74268961 4292773901
-0.32491076 -0.30519485 0.74355334 4292773901
-0.31482622 -0.30499238 0.74363649 4292773901
-0.30532566 -0.30521849 0.74412757 4292773901
-0.2949245 -0.30494702 0.74376428 4292773901
-0.28496888 -0.30518296 0.74376845 4292773901
-0.27505052 -0.30512762 0.74408829 4292773901
-0.26478949 -0.30510488 0.74502486 4292773901
-0.25481075 -0.30494753 0.74530339 4292773901
-0.24521177 -0.30481699 0.74634409 4292773901
-0.23472732 -0.30489925 0.74653792 4292773901
-0.22483811 -0.30506408 0.74692714 4292773901
-0.21517922 -0.3051942 0.74599433 4292773901
-0.20491238 -0.3046988 0.74584889 4292773901
-0.19521759 -0.30523744 0.7469303 4292773901
-0.18496543 -0.30499074 0.74702525 4292773901
-0.17525576 -0.30501777 0.74748737 4292773901
-0.16552654 -0.30514413 0.74890035 4292773901
-0.1550547 -0.30537161 0.74707997 4292773901
-0.14984013 -0.30484283 0.74433345 4292773901
-0.13061909 -0.30394965 0.74587506 4292773901
-0.12540653 -0.30522847 0.74827355 4292773901
-0.11441964 -0.3043378 0.74952257 4292773901
-0.10500379 -0.30499354 0.74866748 4292773901
-0.095702149 -0.30488348 0.7489866 4292773901
-0.08484517 -0.30451089 0.7494967 4292773901
-0.074754335 -0.3043682 0.74958062 4292773901
-0.069177113 -0.30499047 0.74965292 4292773901
0.24980879 -0.30762333 0.74865007 4281302055
0.25444859 -0.30474642 0.74442697 4281302055
0.26515952 -0.30462545 0.74188787 4281302055
0.27496231 -0.3049452 0.74270564 4281302055
0.28473532 -0.30473694 0.74354804 4281302055
0.29482621 -0.30473647 0.74306893 4281302055
0.30485302 -0.30500683 0.74193388 4281302055
0.31523433 -0.30469608 0.74262613 4281302055
0.32522976 -0.30490857 0.74335194 4281302055
0.33543217 -0.30493662 0.74211156 4281302055
0.34018952 -0.30061334 0.74012506 4281302055
0.36534709 -0.30521017 0.74216771 4281302055
0.37527788 -0.3049933 0.74338675 4281302055
0.38484088 -0.30462116 0.74254382 4281302055
0.39515558 -0.30490425 0.74304771 4281302055
0.4049646 -0.30506873 0.74332404 4281302055
0.41542262 -0.30524322 0.74288112 4281302055
0.42494667 -0.30489841 0.74307007 4281302055
0.43456483 -0.30453911 0.74203044 4281302055
0.44488615 -0.3048397 0.74246913 4281302055
0.45515069 -0.30502048 0.74350309 4281302055
0.46551567 -0.30546072 0.74318701 4281302055
0.47501829 -0.30490655 0.74385256 4281302055
0.48305207 -0.30519456 0.74333233 4281302055
-0.49274087 -0.29905975 0.74000001 4292773901
-0.46116987 -0.29655498 0.74000001 4292773901
-0.44655868 -0.29881683 0.74010712 4292773901
-0.42141849 -0.294927 0.74062121 4292773901
-0.41705474 -0.29491246 0.74067861 4292773901
-0.40482694 -0.29883456 0.74006253 4292773901
-0.39451087 -0.29512191 0.74077564 4292773901
-0.38539317 -0.2953493 0.74143171 4292773901
-0.37519532 -0.29477361 0.74112618 4292773901
-0.36522815 -0.29484373 0.7422365 4292773901
-0.35482657 -0.29504561 0.74114555 4292773901
-0.34530789 -0.29495913 0.74142534 4292773901
